# .PCD v0.7 - Point Cloud Data file format
VERSION 0.7
FIELDS x y z rgb
SIZE 4 4 4 4
TYPE F F F F
COUNT 1 1 1 1
WIDTH 997
HEIGHT 1
VIEWPOINT 0 0 0 1 0 0 0
POINTS 997
DATA ascii
-0.17292 -0.16393714 0.78600001 1.1023551e-38
-0.17142285 -0.16393714 0.78600001 1.2683777e-38
-0.1699257 -0.16393714 0.78600001 1.4435839e-38
-0.16842857 -0.16393714 0.78600001 1.627329e-38
-0.16756858 -0.16456285 0.78900003 1.5544729e-38
-0.16429999 -0.1658143 0.79500002 1.1514357e-38
-0.16278571 -0.1658143 0.79500002 1.169946e-38
-0.21034856 -0.16244 0.78600001 7.9900553e-39
-0.20885143 -0.16244 0.78600001 7.8063885e-39
-0.20735428 -0.16244 0.78600001 7.6227119e-39
-0.20585714 -0.16244 0.78600001 7.5308708e-39
-0.20435999 -0.16244 0.78600001 7.4390353e-39
-0.20234667 -0.16202667 0.78400004 7.1635288e-39
-0.20085335 -0.16202667 0.78400004 6.8880237e-39
-0.19885145 -0.16161335 0.78200006 6.7961911e-39
-0.19685715 -0.1612 0.78000003 6.7043542e-39
-0.19537143 -0.1612 0.78000003 6.6125173e-39
-0.19388571 -0.1612 0.78000003 6.5206804e-39
-0.19215335 -0.16099335 0.77900004 6.7961868e-39
-0.19091429 -0.1612 0.78000003 6.9798578e-39
-0.18942858 -0.1612 0.78000003 6.9798578e-39
-0.18842478 -0.16161335 0.78200006 7.0716933e-39
-0.18693525 -0.16161335 0.78200006 7.1635288e-39
-0.18544573 -0.16161335 0.78200006 7.3471998e-39
-0.18348572 -0.1612 0.78000003 7.8063787e-39
-0.18200001 -0.1612 0.78000003 8.1737221e-39
-0.18097715 -0.16161335 0.78200006 8.8165734e-39
-0.17948763 -0.16161335 0.78200006 9.4594513e-39
-0.1779981 -0.16161335 0.78200006 1.0286718e-38
-0.17696001 -0.16202667 0.78400004 1.1205818e-38
-0.17546667 -0.16202667 0.78400004 1.2217113e-38
-0.17441714 -0.16244 0.78600001 1.3320574e-38
-0.17292 -0.16244 0.78600001 1.4241082e-38
-0.17142285 -0.16244 0.78600001 1.5081234e-38
-0.17035811 -0.16285335 0.78800005 1.5632247e-38
-0.16885714 -0.16285335 0.78800005 1.6183251e-38
-0.16623144 -0.16471334 0.79700005 1.2522387e-38
-0.16471334 -0.16471334 0.79700005 1.1514706e-38
-0.20938288 -0.1613524 0.78800005 1.2034819e-38
-0.20735428 -0.16094287 0.78600001 1.1665312e-38
-0.20585714 -0.16094287 0.78600001 1.1387999e-38
-0.20435999 -0.16094287 0.78600001 1.1112486e-38
-0.20234667 -0.16053334 0.78400004 1.0928809e-38
-0.20085335 -0.16053334 0.78400004 1.0745506e-38
-0.19936 -0.16053334 0.78400004 1.0563638e-38
-0.19736192 -0.16012383 0.78200006 1.0380694e-38
-0.1958724 -0.16012383 0.78200006 1.0289586e-38
-0.19438288 -0.16012383 0.78200006 1.028635e-38
-0.19240001 -0.1597143 0.78000003 1.0563285e-38
-0.19140382 -0.16012383 0.78200006 1.0837358e-38
-0.18942858 -0.1597143 0.78000003 1.10239e-38
-0.18842478 -0.16012383 0.78200006 1.1299402e-38
-0.18693525 -0.16012383 0.78200006 1.1758576e-38
-0.18544573 -0.16012383 0.78200006 1.2218831e-38
-0.18395621 -0.16012383 0.78200006 1.3046426e-38
-0.18200001 -0.1597143 0.78000003 1.3871882e-38
-0.18097715 -0.16012383 0.78200006 1.4605503e-38
-0.17948763 -0.16012383 0.78200006 1.5344867e-38
-0.1779981 -0.16012383 0.78200006 1.6084231e-38
-0.17696001 -0.16053334 0.78400004 1.6820008e-38
-0.17546667 -0.16053334 0.78400004 1.7096608e-38
-0.17441714 -0.16094287 0.78600001 1.7362777e-38
-0.17336002 -0.1613524 0.78800005 1.7458909e-38
-0.17185906 -0.1613524 0.78800005 1.7551109e-38
-0.17057429 -0.16155715 0.78900003 1.6816788e-38
-0.16950001 -0.16196667 0.79100001 1.6182181e-38
-0.16732858 -0.16278571 0.79500002 1.215289e-38
-0.16471334 -0.16319525 0.79700005 1.160618e-38
-0.16319525 -0.16319525 0.79700005 1.169837e-38
-0.20964858 -0.1600543 0.78900003 1.4332552e-38
-0.20814572 -0.1600543 0.78900003 1.4147785e-38
-0.20638096 -0.15985143 0.78800005 1.4147766e-38
-0.20488 -0.15985143 0.78800005 1.4147753e-38
-0.20286286 -0.15944572 0.78600001 1.3962276e-38
-0.20136572 -0.15944572 0.78600001 1.3776827e-38
-0.19986857 -0.15944572 0.78600001 1.3777202e-38
-0.19786668 -0.15904 0.78400004 1.3777941e-38
-0.19637334 -0.15904 0.78400004 1.368541e-38
-0.19438288 -0.15863429 0.78200006 1.3592843e-38
-0.19289334 -0.15863429 0.78200006 1.3684665e-38
-0.19140382 -0.15863429 0.78200006 1.3868338e-38
-0.1899143 -0.15863429 0.78200006 1.4052731e-38
-0.18890667 -0.15904 0.78400004 1.4145276e-38
-0.18741335 -0.15904 0.78400004 1.4423285e-38
-0.18592 -0.15904 0.78400004 1.4609826e-38
-0.18395621 -0.15863429 0.78200006 1.506757e-38
-0.18293335 -0.15904 0.78400004 1.5442467e-38
-0.18144001 -0.15904 0.78400004 1.579943e-38
-0.17948763 -0.15863429 0.78200006 1.6179332e-38
-0.17845334 -0.15904 0.78400004 1.635942e-38
-0.17696001 -0.15904 0.78400004 1.6631702e-38
-0.17591429 -0.15944572 0.78600001 1.6814302e-38
-0.17441714 -0.15944572 0.78600001 1.6997237e-38
-0.17336002 -0.15985143 0.78800005 1.690359e-38
-0.17207715 -0.1600543 0.78900003 1.6809971e-38
-0.17100666 -0.16046 0.79100001 1.6446943e-38
-0.16992857 -0.16086572 0.79300004 1.6089635e-38
-0.16884285 -0.16127144 0.79500002 1.4074982e-38
-0.16774952 -0.16167715 0.79700005 1.2155404e-38
-0.16623144 -0.16167715 0.79700005 1.1973166e-38
-0.16492002 -0.16188002 0.79800004 1.1883119e-38
-0.16340001 -0.16188002 0.79800004 1.1883113e-38
-0.20964858 -0.15855142 0.78900003 1.663023e-38
-0.20814572 -0.15855142 0.78900003 1.66313e-38
-0.20638096 -0.15835048 0.78800005 1.6907877e-38
-0.20488 -0.15835048 0.78800005 1.71823e-38
-0.20337906 -0.15835048 0.78800005 1.6997905e-38
-0.20136572 -0.15794858 0.78600001 1.6899978e-38
-0.19986857 -0.15794858 0.78600001 1.6995768e-38
-0.19786668 -0.15754667 0.78400004 1.7175858e-38
-0.19637334 -0.15754667 0.78400004 1.6997577e-38
-0.19488001 -0.15754667 0.78400004 1.690682e-38
-0.19338667 -0.15754667 0.78400004 1.6907901e-38
-0.19189334 -0.15754667 0.78400004 1.6999732e-38
-0.1904 -0.15754667 0.78400004 1.7000086e-38
-0.18938857 -0.15794858 0.78600001 1.7091922e-38
-0.18789144 -0.15794858 0.78600001 1.7091922e-38
-0.18592 -0.15754667 0.78400004 1.7090481e-38
-0.18442668 -0.15754667 0.78400004 1.7089039e-38
-0.18293335 -0.15754667 0.78400004 1.70869e-38
-0.18144001 -0.15754667 0.78400004 1.6993283e-38
-0.17994668 -0.15754667 0.78400004 1.6993287e-38
-0.17845334 -0.15754667 0.78400004 1.6717786e-38
-0.17696001 -0.15754667 0.78400004 1.6440848e-38
-0.17591429 -0.15794858 0.78600001 1.6531251e-38
-0.17486095 -0.15835048 0.78800005 1.6714912e-38
-0.17358001 -0.15855142 0.78900003 1.6439755e-38
-0.17251334 -0.15895334 0.79100001 1.6166765e-38
-0.17143907 -0.15935525 0.79300004 1.6077446e-38
-0.16992857 -0.15935525 0.79300004 1.5998158e-38
-0.16884285 -0.15975715 0.79500002 1.407642e-38
-0.16774952 -0.16015905 0.79700005 1.215433e-38
-0.16623144 -0.16015905 0.79700005 1.215684e-38
-0.16492002 -0.16036001 0.79800004 1.2157556e-38
-0.16340001 -0.16036001 0.79800004 1.2066078e-38
-0.20867334 -0.15744667 0.79100001 1.6164959e-38
-0.20664287 -0.15704857 0.78900003 1.6440472e-38
-0.20513999 -0.15704857 0.78900003 1.6807813e-38
-0.20337906 -0.15684953 0.78800005 1.6532664e-38
-0.2018781 -0.15684953 0.78800005 1.6349709e-38
-0.19986857 -0.15645143 0.78600001 1.6533021e-38
-0.19837144 -0.15645143 0.78600001 1.6716685e-38
-0.19687429 -0.15645143 0.78600001 1.644189e-38
-0.19537714 -0.15645143 0.78600001 1.6259317e-38
-0.19338667 -0.15605333 0.78400004 1.6443009e-38
-0.19189334 -0.15605333 0.78400004 1.6626668e-38
-0.1904 -0.15605333 0.78400004 1.6534822e-38
-0.18938857 -0.15645143 0.78600001 1.6442995e-38
-0.18789144 -0.15645143 0.78600001 1.6625239e-38
-0.18592 -0.15605333 0.78400004 1.6807461e-38
-0.18442668 -0.15605333 0.78400004 1.6715613e-38
-0.18293335 -0.15605333 0.78400004 1.6531943e-38
-0.18144001 -0.15605333 0.78400004 1.6715616e-38
-0.17994668 -0.15605333 0.78400004 1.6899292e-38
-0.17890857 -0.15645143 0.78600001 1.6715268e-38
-0.17741142 -0.15645143 0.78600001 1.6531238e-38
-0.1763619 -0.15684953 0.78800005 1.6714552e-38
-0.17508286 -0.15704857 0.78900003 1.6898222e-38
-0.17402001 -0.15744667 0.79100001 1.6898579e-38
-0.17251334 -0.15744667 0.79100001 1.690145e-38
-0.17143907 -0.15784477 0.79300004 1.6902528e-38
-0.16992857 -0.15784477 0.79300004 1.7008707e-38
-0.16884285 -0.15824285 0.79500002 1.4533808e-38
-0.16774952 -0.15864097 0.79700005 1.206178e-38
-0.16623144 -0.15864097 0.79700005 1.2155767e-38
-0.16492002 -0.15884002 0.79800004 1.2249399e-38
-0.16340001 -0.15884002 0.79800004 1.2157566e-38
-0.20867334 -0.15594 0.79100001 1.5704348e-38
-0.20716667 -0.15594 0.79100001 1.6071694e-38
-0.20566 -0.15594 0.79100001 1.6439032e-38
-0.20363715 -0.15554573 0.78900003 1.6163521e-38
-0.2018781 -0.15534858 0.78800005 1.5888003e-38
-0.20037715 -0.15534858 0.78800005 1.6071664e-38
-0.19837144 -0.15495428 0.78600001 1.6255344e-38
-0.19687429 -0.15495428 0.78600001 1.5888012e-38
-0.19537714 -0.15495428 0.78600001 1.5612508e-38
-0.19388001 -0.15495428 0.78600001 1.5888017e-38
-0.19238286 -0.15495428 0.78600001 1.6255361e-38
-0.19088572 -0.15495428 0.78600001 1.607205e-38
-0.18938857 -0.15495428 0.78600001 1.5888028e-38
-0.18789144 -0.15495428 0.78600001 1.6255377e-38
-0.18639429 -0.15495428 0.78600001 1.6622712e-38
-0.18489714 -0.15495428 0.78600001 1.6347199e-38
-0.18293335 -0.15456001 0.78400004 1.6071695e-38
-0.18190286 -0.15495428 0.78600001 1.643904e-38
-0.18040572 -0.15495428 0.78600001 1.6898222e-38
-0.17890857 -0.15495428 0.78600001 1.6806749e-38
-0.17741142 -0.15495428 0.78600001 1.6714555e-38
-0.1763619 -0.15534858 0.78800005 1.6898225e-38
-0.17508286 -0.15554573 0.78900003 1.7173732e-38
-0.17402001 -0.15594 0.79100001 1.7357762e-38
-0.17251334 -0.15594 0.79100001 1.763506e-38
-0.17143907 -0.1563343 0.79300004 1.7819805e-38
-0.17035714 -0.15672857 0.79500002 1.8108935e-38
-0.16926764 -0.15712287 0.79700005 1.4991183e-38
-0.16774952 -0.15712287 0.79700005 1.1968503e-38
-0.16644001 -0.15732001 0.79800004 1.2154682e-38
-0.16492002 -0.15732001 0.79800004 1.2433064e-38
-0.16380952 -0.15771429 0.80000001 1.2341234e-38
-0.16228572 -0.15771429 0.80000001 1.2249399e-38
-0.20867334 -0.15443332 0.79100001 1.6256437e-38
-0.20716667 -0.15443332 0.79100001 1.6439752e-38
-0.20566 -0.15443332 0.79100001 1.6623416e-38
-0.20415334 -0.15443332 0.79100001 1.6439738e-38
-0.2021343 -0.15404287 0.78900003 1.6347881e-38
-0.20037715 -0.15384762 0.78800005 1.6439339e-38
-0.19837144 -0.15345715 0.78600001 1.6531199e-38
-0.19687429 -0.15345715 0.78600001 1.6347553e-38
-0.19537714 -0.15345715 0.78600001 1.6163866e-38
-0.19388001 -0.15345715 0.78600001 1.6255327e-38
-0.19238286 -0.15345715 0.78600001 1.6439012e-38
-0.19088572 -0.15345715 0.78600001 1.6439027e-38
-0.18987049 -0.15384762 0.78800005 1.6347199e-38
-0.18836953 -0.15384762 0.78800005 1.6622712e-38
-0.18639429 -0.15345715 0.78600001 1.6898218e-38
-0.18489714 -0.15345715 0.78600001 1.6990052e-38
-0.18340001 -0.15345715 0.78600001 1.7081891e-38
-0.18190286 -0.15345715 0.78600001 1.7173731e-38
-0.18040572 -0.15345715 0.78600001 1.7265569e-38
-0.17936382 -0.15384762 0.78800005 1.7358485e-38
-0.17786287 -0.15384762 0.78800005 1.7542871e-38
-0.17658572 -0.15404287 0.78900003 1.7725106e-38
-0.17552668 -0.15443332 0.79100001 1.7909138e-38
-0.17402001 -0.15443332 0.79100001 1.8184647e-38
-0.17294954 -0.15482381 0.79300004 1.8460506e-38
-0.17143907 -0.15482381 0.79300004 1.8738159e-38
-0.17035714 -0.15521429 0.79500002 1.9117687e-38
-0.16926764 -0.15560476 0.79700005 1.6366915e-38
-0.16774952 -0.15560476 0.79700005 1.3711934e-38
-0.16644001 -0.15580001 0.79800004 1.2795371e-38
-0.16492002 -0.15580001 0.79800004 1.1973882e-38
-0.16380952 -0.15619047 0.80000001 1.2157562e-38
-0.16228572 -0.15619047 0.80000001 1.234159e-38
-0.21071143 -0.15331334 0.79300004 1.7082243e-38
-0.20920096 -0.15331334 0.79300004 1.6806737e-38
-0.20769049 -0.15331334 0.79300004 1.6807095e-38
-0.20618001 -0.15331334 0.79300004 1.6898927e-38
-0.20415334 -0.15292667 0.79100001 1.6806728e-38
-0.20264667 -0.15292667 0.79100001 1.6806718e-38
-0.20063144 -0.15254 0.78900003 1.6806707e-38
-0.1988762 -0.15234667 0.78800005 1.6898555e-38
-0.19737525 -0.15234667 0.78800005 1.6806731e-38
-0.19537714 -0.15196 0.78600001 1.6714886e-38
-0.19437334 -0.15234667 0.78800005 1.6714517e-38
-0.19238286 -0.15196 0.78600001 1.6714527e-38
-0.19137144 -0.15234667 0.78800005 1.6806372e-38
-0.18987049 -0.15234667 0.78800005 1.6898213e-38
-0.18836953 -0.15234667 0.78800005 1.6990054e-38
-0.18639429 -0.15196 0.78600001 1.7173723e-38
-0.18536763 -0.15234667 0.78800005 1.7632899e-38
-0.18386668 -0.15234667 0.78800005 1.8184275e-38
-0.18236572 -0.15234667 0.78800005 1.7912001e-38
-0.18086477 -0.15234667 0.78800005 1.7635422e-38
-0.17959145 -0.15254 0.78900003 1.8002053e-38
-0.17808858 -0.15254 0.78900003 1.8369039e-38
-0.17658572 -0.15254 0.78900003 1.8460159e-38
-0.17552668 -0.15292667 0.79100001 1.8643476e-38
-0.17402001 -0.15292667 0.79100001 1.8920422e-38
-0.17294954 -0.15331334 0.79300004 1.9286675e-38
-0.17187142 -0.15370001 0.79500002 1.9656517e-38
-0.17078573 -0.15408668 0.79700005 2.0131117e-38
-0.16948001 -0.15428001 0.79800004 1.7743034e-38
-0.16796 -0.15428001 0.79800004 1.5455016e-38
-0.16685714 -0.15466668 0.80000001 1.3433537e-38
-0.16533333 -0.15466668 0.80000001 1.1511469e-38
-0.16380952 -0.15466668 0.80000001 1.1972101e-38
-0.16228572 -0.15466668 0.80000001 1.2524548e-38
-0.20972858 -0.15218571 0.79500002 1.7451383e-38
-0.20769049 -0.15180287 0.79300004 1.7541423e-38
-0.20618001 -0.15180287 0.79300004 1.7633975e-38
-0.20466954 -0.15180287 0.79300004 1.7633256e-38
-0.20264667 -0.15142 0.79100001 1.7725449e-38
-0.20063144 -0.15103714 0.78900003 1.7632896e-38
-0.1988762 -0.15084572 0.78800005 1.7632895e-38
-0.19737525 -0.15084572 0.78800005 1.7541058e-38
-0.1958743 -0.15084572 0.78800005 1.7449935e-38
-0.19437334 -0.15084572 0.78800005 1.7449215e-38
-0.19287239 -0.15084572 0.78800005 1.7449578e-38
-0.19137144 -0.15084572 0.78800005 1.754106e-38
-0.18987049 -0.15084572 0.78800005 1.7541063e-38
-0.18836953 -0.15084572 0.78800005 1.7724738e-38
-0.18686858 -0.15084572 0.78800005 1.781693e-38
-0.18536763 -0.15084572 0.78800005 1.8092792e-38
-0.18386668 -0.15084572 0.78800005 1.8368662e-38
-0.18236572 -0.15084572 0.78800005 1.8461936e-38
-0.18109429 -0.15103714 0.78900003 1.8555212e-38
-0.17959145 -0.15103714 0.78900003 1.8827497e-38
-0.17808858 -0.15103714 0.78900003 1.9195206e-38
-0.17703332 -0.15142 0.79100001 1.9378527e-38
-0.17552668 -0.15142 0.79100001 1.9561845e-38
-0.17446001 -0.15180287 0.79300004 1.9837357e-38
-0.17294954 -0.15180287 0.79300004 2.0113204e-38
-0.17230381 -0.15256858 0.79700005 2.0487702e-38
-0.171 -0.15276001 0.79800004 2.0777206e-38
-0.16948001 -0.15276001 0.79800004 1.9859936e-38
-0.16838096 -0.15314285 0.80000001 1.8851137e-38
-0.16685714 -0.15314285 0.80000001 1.6005988e-38
-0.16533333 -0.15314285 0.80000001 1.3253467e-38
-0.16421905 -0.15352573 0.80200005 1.2613162e-38
-0.16269143 -0.15352573 0.80200005 1.1972822e-38
-0.21508001 -0.15124001 0.79800004 1.8551261e-38
-0.21356 -0.15124001 0.79800004 1.8459781e-38
-0.21177429 -0.15105049 0.79700005 1.8276467e-38
-0.2102562 -0.15105049 0.79700005 1.8184991e-38
-0.20821428 -0.15067142 0.79500002 1.827575e-38
-0.2067 -0.15067142 0.79500002 1.845942e-38
-0.20466954 -0.15029238 0.79300004 1.8551252e-38
-0.20315906 -0.15029238 0.79300004 1.8643086e-38
-0.19912858 -0.14953429 0.78900003 1.8459411e-38
-0.19737525 -0.14934477 0.78800005 1.8367573e-38
-0.1958743 -0.14934477 0.78800005 1.8275736e-38
-0.19437334 -0.14934477 0.78800005 1.8275733e-38
-0.19287239 -0.14934477 0.78800005 1.8276459e-38
-0.19137144 -0.14934477 0.78800005 1.8279695e-38
-0.18987049 -0.14934477 0.78800005 1.8275754e-38
-0.18836953 -0.14934477 0.78800005 1.8367594e-38
-0.18686858 -0.14934477 0.78800005 1.8551621e-38
-0.18536763 -0.14934477 0.78800005 1.8554129e-38
-0.18386668 -0.14934477 0.78800005 1.8645254e-38
-0.18259715 -0.14953429 0.78900003 1.9011886e-38
-0.18109429 -0.14953429 0.78900003 1.9470353e-38
-0.17959145 -0.14953429 0.78900003 1.9745149e-38
-0.17853999 -0.14991333 0.79100001 2.0021376e-38
-0.17703332 -0.14991333 0.79100001 2.0299755e-38
-0.17597048 -0.15029238 0.79300004 2.0576702e-38
-0.17446001 -0.15029238 0.79300004 2.0761813e-38
-0.17338572 -0.15067142 0.79500002 2.1040538e-38
-0.17230381 -0.15105049 0.79700005 2.122743e-38
-0.171 -0.15124001 0.79800004 2.1507242e-38
-0.16990477 -0.15161905 0.80000001 2.1879251e-38
-0.16685714 -0.15161905 0.80000001 1.8670702e-38
-0.16533333 -0.15161905 0.80000001 1.4997624e-38
-0.21356 -0.14972001 0.79800004 1.9197334e-38
-0.21204001 -0.14972001 0.79800004 1.9194462e-38
-0.2102562 -0.14953238 0.79700005 1.919554e-38
-0.2087381 -0.14953238 0.79700005 1.9102272e-38
-0.2067 -0.14915715 0.79500002 1.9102269e-38
-0.20466954 -0.14878191 0.79300004 1.9194102e-38
-0.20315906 -0.14878191 0.79300004 1.9377769e-38
-0.19912858 -0.14803144 0.78900003 1.9102974e-38
-0.19762571 -0.14803144 0.78900003 1.9102254e-38
-0.1958743 -0.14784381 0.78800005 1.9194447e-38
-0.19462001 -0.14803144 0.78900003 1.9102611e-38
-0.19287239 -0.14784381 0.78800005 1.9103339e-38
-0.19137144 -0.14784381 0.78800005 1.9011156e-38
-0.18987049 -0.14784381 0.78800005 1.8918967e-38
-0.18836953 -0.14784381 0.78800005 1.9102645e-38
-0.18710573 -0.14803144 0.78900003 1.9286672e-38
-0.18536763 -0.14784381 0.78800005 1.937994e-38
-0.18386668 -0.14784381 0.78800005 1.9474295e-38
-0.18236572 -0.14784381 0.78800005 1.98377e-38
-0.18109429 -0.14803144 0.78900003 2.0112496e-38
-0.17959145 -0.14803144 0.78900003 2.0479847e-38
-0.17853999 -0.14840665 0.79100001 2.0755709e-38
-0.17703332 -0.14840665 0.79100001 2.0942606e-38
-0.17597048 -0.14878191 0.79300004 2.1219553e-38
-0.1749 -0.14915715 0.79500002 2.1404664e-38
-0.17338572 -0.14915715 0.79500002 2.1683758e-38
-0.17252001 -0.14972001 0.79800004 2.1958549e-38
-0.171 -0.14972001 0.79800004 2.2325528e-38
-0.16990477 -0.15009524 0.80000001 2.2521391e-38
-0.16838096 -0.15009524 0.80000001 2.2796535e-38
-0.1672743 -0.15047048 0.80200005 2.0782608e-38
-0.16503811 -0.15122096 0.80600005 1.5732603e-38
-0.21561906 -0.14857143 0.80000001 2.0204305e-38
-0.21356 -0.14820001 0.79800004 1.9928797e-38
-0.21204001 -0.14820001 0.79800004 2.002099e-38
-0.21052 -0.14820001 0.79800004 2.02043e-38
-0.2087381 -0.14801429 0.79700005 2.0020627e-38
-0.20722 -0.14801429 0.79700005 1.9836956e-38
-0.20518573 -0.14764287 0.79500002 1.992879e-38
-0.20315906 -0.14727144 0.79300004 2.0112457e-38
-0.20114 -0.1469 0.79100001 1.9928783e-38
-0.19963333 -0.1469 0.79100001 1.9745468e-38
-0.19762571 -0.14652859 0.78900003 1.9928778e-38
-0.19612287 -0.14652859 0.78900003 2.0112812e-38
-0.19462001 -0.14652859 0.78900003 2.0021339e-38
-0.19311716 -0.14652859 0.78900003 2.0020989e-38
-0.19161429 -0.14652859 0.78900003 1.9745132e-38
-0.19011143 -0.14652859 0.78900003 1.9561467e-38
-0.18908666 -0.1469 0.79100001 1.9745503e-38
-0.18758 -0.1469 0.79100001 2.0021367e-38
-0.18607333 -0.1469 0.79100001 2.0206113e-38
-0.18456666 -0.1469 0.79100001 2.0392301e-38
-0.18305999 -0.1469 0.79100001 2.0571674e-38
-0.18155333 -0.1469 0.79100001 2.0847547e-38
-0.18004666 -0.1469 0.79100001 2.1215257e-38
-0.17853999 -0.1469 0.79100001 2.1583313e-38
-0.17748097 -0.14727144 0.79300004 2.1677658e-38
-0.17597048 -0.14727144 0.79300004 2.1861336e-38
-0.1749 -0.14764287 0.79500002 2.2047526e-38
-0.17382191 -0.14801429 0.79700005 2.2324464e-38
-0.17252001 -0.14820001 0.79800004 2.2698978e-38
-0.171 -0.14820001 0.79800004 2.3160671e-38
-0.16990477 -0.14857143 0.80000001 2.3255382e-38
-0.16838096 -0.14857143 0.80000001 2.3348651e-38
-0.1672743 -0.14894287 0.80200005 2.298633e-38
-0.16657335 -0.14968573 0.80600005 2.2709338e-38
-0.16503811 -0.14968573 0.80600005 1.829616e-38
-0.21714285 -0.14704762 0.80000001 2.0663487e-38
-0.21561906 -0.14704762 0.80000001 2.0572014e-38
-0.21409523 -0.14704762 0.80000001 2.0572372e-38
-0.21204001 -0.14668001 0.79800004 2.0480176e-38
-0.21052 -0.14668001 0.79800004 2.0480529e-38
-0.2087381 -0.14649621 0.79700005 2.0479806e-38
-0.20722 -0.14649621 0.79700005 2.0479807e-38
-0.20518573 -0.14612857 0.79500002 2.0387973e-38
-0.20315906 -0.14576097 0.79300004 2.0296492e-38
-0.20164859 -0.14576097 0.79300004 2.0296488e-38
-0.19963333 -0.14539333 0.79100001 2.038868e-38
-0.19812667 -0.14539333 0.79100001 2.0296841e-38
-0.19662 -0.14539333 0.79100001 2.0296851e-38
-0.19511333 -0.14539333 0.79100001 2.0296502e-38
-0.19360666 -0.14539333 0.79100001 2.0387985e-38
-0.19161429 -0.14502572 0.78900003 2.0296155e-38
-0.19059333 -0.14539333 0.79100001 2.0204325e-38
-0.18908666 -0.14539333 0.79100001 2.0388362e-38
-0.18758 -0.14539333 0.79100001 2.057275e-38
-0.18607333 -0.14539333 0.79100001 2.0757856e-38
-0.18456666 -0.14539333 0.79100001 2.10348e-38
-0.18305999 -0.14539333 0.79100001 2.1216682e-38
-0.18155333 -0.14539333 0.79100001 2.1490762e-38
-0.18004666 -0.14539333 0.79100001 2.1766995e-38
-0.17853999 -0.14539333 0.79100001 2.2043935e-38
-0.17748097 -0.14576097 0.79300004 2.213577e-38
-0.17641428 -0.14612857 0.79500002 2.2319449e-38
-0.17534001 -0.14649621 0.79700005 2.2504563e-38
-0.17404 -0.14668001 0.79800004 2.2781499e-38
-0.17252001 -0.14668001 0.79800004 2.2975568e-38
-0.17142858 -0.14704762 0.80000001 2.3255392e-38
-0.16990477 -0.14704762 0.80000001 2.3256482e-38
-0.1688019 -0.14741525 0.80200005 2.3349754e-38
-0.16769142 -0.14778285 0.80400002 2.3166443e-38
-0.16657335 -0.14815049 0.80600005 2.2983093e-38
-0.16544762 -0.1485181 0.80800003 2.032126e-38
-0.16317333 -0.14925334 0.81200004 1.4724247e-38
-0.16162667 -0.14925334 0.81200004 1.178948e-38
-0.16008002 -0.14925334 0.81200004 1.2157922e-38
-0.21714285 -0.14552382 0.80000001 2.0848235e-38
-0.21561906 -0.14552382 0.80000001 2.1031909e-38
-0.21409523 -0.14552382 0.80000001 2.1215224e-38
-0.21204001 -0.14516002 0.79800004 2.0939361e-38
-0.21052 -0.14516002 0.79800004 2.0755687e-38
-0.20900001 -0.14516002 0.79800004 2.0938995e-38
-0.20722 -0.14497809 0.79700005 2.1214501e-38
-0.20518573 -0.14461428 0.79500002 2.0847161e-38
-0.20367144 -0.14461428 0.79500002 2.0572007e-38
-0.20164859 -0.14425048 0.79300004 2.0756033e-38
-0.20013809 -0.14425048 0.79300004 2.1031538e-38
-0.19812667 -0.14388667 0.79100001 2.0756029e-38
-0.19662 -0.14388667 0.79100001 2.0480173e-38
-0.19511333 -0.14388667 0.79100001 2.057166e-38
-0.19360666 -0.14388667 0.79100001 2.0755694e-38
-0.1921 -0.14388667 0.79100001 2.0853991e-38
-0.19059333 -0.14388667 0.79100001 2.094619e-38
-0.18908666 -0.14388667 0.79100001 2.1038749e-38
-0.18758 -0.14388667 0.79100001 2.1220989e-38
-0.18607333 -0.14388667 0.79100001 2.140323e-38
-0.18456666 -0.14388667 0.79100001 2.1678737e-38
-0.18305999 -0.14388667 0.79100001 2.1867792e-38
-0.18155333 -0.14388667 0.79100001 2.2135767e-38
-0.18004666 -0.14388667 0.79100001 2.2319082e-38
-0.17853999 -0.14388667 0.79100001 2.2509204e-38
-0.17748097 -0.14425048 0.79300004 2.2607491e-38
-0.17641428 -0.14461428 0.79500002 2.279261e-38
-0.17534001 -0.14497809 0.79700005 2.3069924e-38
-0.17404 -0.14516002 0.79800004 2.3344715e-38
-0.17252001 -0.14516002 0.79800004 2.3343999e-38
-0.171 -0.14516002 0.79800004 2.3352255e-38
-0.16990477 -0.14552382 0.80000001 2.335513e-38
-0.1688019 -0.14588763 0.80200005 2.3351903e-38
-0.16769142 -0.14625144 0.80400002 2.3348319e-38
-0.16657335 -0.14661525 0.80600005 2.3349734e-38
-0.16544762 -0.14697905 0.80800003 2.2333784e-38
-0.16317333 -0.14770667 0.81200004 1.6459783e-38
-0.16008002 -0.14770667 0.81200004 1.2066089e-38
-0.15853333 -0.14770667 0.81200004 1.2710368e-38
-0.2166 -0.14364001 0.79800004 2.1493596e-38
-0.21561906 -0.14399999 0.80000001 2.1490729e-38
-0.21356 -0.14364001 0.79800004 2.1491453e-38
-0.21204001 -0.14364001 0.79800004 2.1398546e-38
-0.21052 -0.14364001 0.79800004 2.1307427e-38
-0.2087381 -0.14346001 0.79700005 2.1398544e-38
-0.20722 -0.14346001 0.79700005 2.1490736e-38
-0.20518573 -0.14310001 0.79500002 2.1307065e-38
-0.20367144 -0.14310001 0.79500002 2.1123389e-38
-0.20164859 -0.14274001 0.79300004 2.1125178e-38
-0.20013809 -0.14274001 0.79300004 2.1219165e-38
-0.19862762 -0.14274001 0.79300004 2.1127328e-38
-0.19711715 -0.14274001 0.79300004 2.1127338e-38
-0.19560668 -0.14274001 0.79300004 2.112376e-38
-0.19360666 -0.14238 0.79100001 2.1123404e-38
-0.1921 -0.14238 0.79100001 2.1313177e-38
-0.19059333 -0.14238 0.79100001 2.1497569e-38
-0.18908666 -0.14238 0.79100001 2.1679451e-38
-0.18758 -0.14238 0.79100001 2.176986e-38
-0.18607333 -0.14238 0.79100001 2.2045735e-38
-0.1841 -0.14202 0.78900003 2.2414512e-38
-0.18259715 -0.14202 0.78900003 2.250563e-38
-0.18155333 -0.14238 0.79100001 2.2688938e-38
-0.18004666 -0.14238 0.79100001 2.2786509e-38
-0.17853999 -0.14238 0.79100001 2.2884431e-38
-0.17748097 -0.14274001 0.79300004 2.2976975e-38
-0.17685811 -0.14346001 0.79700005 2.3069905e-38
-0.17534001 -0.14346001 0.79700005 2.3159966e-38
-0.17382191 -0.14346001 0.79700005 2.3342209e-38
-0.17252001 -0.14364001 0.79800004 2.3350468e-38
-0.171 -0.14364001 0.79800004 2.3357283e-38
-0.16990477 -0.14399999 0.80000001 2.3355846e-38
-0.16838096 -0.14399999 0.80000001 2.3354413e-38
-0.1672743 -0.14436001 0.80200005 2.3351905e-38
-0.16657335 -0.14508002 0.80600005 2.3349392e-38
-0.16544762 -0.14544 0.80800003 2.2702237e-38
-0.1643143 -0.14580001 0.81000006 2.2158677e-38
-0.16317333 -0.14616001 0.81200004 1.83876e-38
-0.16162667 -0.14616001 0.81200004 1.4537722e-38
-0.16008002 -0.14616001 0.81200004 1.343968e-38
-0.15853333 -0.14616001 0.81200004 1.2343387e-38
-0.2166 -0.14212 0.79800004 2.2225425e-38
-0.21508001 -0.14212 0.79800004 2.2041756e-38
-0.21356 -0.14212 0.79800004 2.185773e-38
-0.21204001 -0.14212 0.79800004 2.1857734e-38
-0.2102562 -0.14194192 0.79700005 2.1857728e-38
-0.2087381 -0.14194192 0.79700005 2.1765888e-38
-0.2067 -0.14158572 0.79500002 2.1766247e-38
-0.20518573 -0.14158572 0.79500002 2.1675129e-38
-0.20367144 -0.14158572 0.79500002 2.1676563e-38
-0.20164859 -0.14122953 0.79300004 2.1494325e-38
-0.20013809 -0.14122953 0.79300004 2.1401774e-38
-0.19862762 -0.14122953 0.79300004 2.1585086e-38
-0.19711715 -0.14122953 0.79300004 2.1768404e-38
-0.19560668 -0.14122953 0.79300004 2.158438e-38
-0.19409619 -0.14122953 0.79300004 2.1494699e-38
-0.19258572 -0.14122953 0.79300004 2.1772721e-38
-0.19059333 -0.14087334 0.79100001 2.2142578e-38
-0.18908666 -0.14087334 0.79100001 2.2237289e-38
-0.18758 -0.14087334 0.79100001 2.2410924e-38
-0.18607333 -0.14087334 0.79100001 2.2780427e-38
-0.1841 -0.14051715 0.78900003 2.3150279e-38
-0.18259715 -0.14051715 0.78900003 2.3154942e-38
-0.18155333 -0.14087334 0.79100001 2.324821e-38
-0.18004666 -0.14087334 0.79100001 2.3249643e-38
-0.17853999 -0.14087334 0.79100001 2.3343631e-38
-0.17748097 -0.14122953 0.79300004 2.3345426e-38
-0.17685811 -0.14194192 0.79700005 2.3347942e-38
-0.17534001 -0.14194192 0.79700005 2.3350814e-38
-0.17404 -0.14212 0.79800004 2.3353691e-38
-0.17252001 -0.14212 0.79800004 2.3356925e-38
-0.171 -0.14212 0.79800004 2.3356574e-38
-0.16990477 -0.1424762 0.80000001 2.3359808e-38
-0.16838096 -0.1424762 0.80000001 2.3358011e-38
-0.1672743 -0.1428324 0.80200005 2.3356572e-38
-0.16544762 -0.14390096 0.80800003 2.3162488e-38
-0.1643143 -0.14425716 0.81000006 2.2978774e-38
-0.16277145 -0.14425716 0.81000006 2.0315858e-38
-0.16162667 -0.14461334 0.81200004 1.7659079e-38
-0.15968573 -0.14425716 0.81000006 1.4813248e-38
-0.15814288 -0.14425716 0.81000006 1.2065358e-38
-0.21812001 -0.1406 0.79800004 2.2409826e-38
-0.2166 -0.1406 0.79800004 2.231871e-38
-0.21508001 -0.1406 0.79800004 2.222616e-38
-0.21356 -0.1406 0.79800004 2.2133607e-38
-0.21177429 -0.14042382 0.79700005 2.2225803e-38
-0.2102562 -0.14042382 0.79700005 2.2409824e-38
-0.20821428 -0.14007142 0.79500002 2.222758e-38
-0.2067 -0.14007142 0.79500002 2.2137181e-38
-0.20466954 -0.13971905 0.79300004 2.2137182e-38
-0.20315906 -0.13971905 0.79300004 2.2229378e-38
-0.20164859 -0.13971905 0.79300004 2.2136469e-38
-0.20013809 -0.13971905 0.79300004 2.2042484e-38
-0.19862762 -0.13971905 0.79300004 2.2135039e-38
-0.19711715 -0.13971905 0.79300004 2.2227951e-38
-0.19560668 -0.13971905 0.79300004 2.21354e-38
-0.19409619 -0.13971905 0.79300004 2.2140067e-38
-0.19258572 -0.13971905 0.79300004 2.2417013e-38
-0.19059333 -0.13936667 0.79100001 2.2698265e-38
-0.18908666 -0.13936667 0.79100001 2.2785801e-38
-0.18758 -0.13936667 0.79100001 2.2868677e-38
-0.18607333 -0.13936667 0.79100001 2.3055943e-38
-0.1841 -0.13901429 0.78900003 2.3243199e-38
-0.18305999 -0.13936667 0.79100001 2.3244274e-38
-0.18155333 -0.13936667 0.79100001 2.324535e-38
-0.18004666 -0.13936667 0.79100001 2.3251807e-38
-0.17899144 -0.13971905 0.79300004 2.3344014e-38
-0.17792857 -0.14007142 0.79500002 2.3347614e-38
-0.17685811 -0.14042382 0.79700005 2.3351547e-38
-0.17534001 -0.14042382 0.79700005 2.3352254e-38
-0.17404 -0.1406 0.79800004 2.3355486e-38
-0.17252001 -0.1406 0.79800004 2.3355492e-38
-0.171 -0.1406 0.79800004 2.3355865e-38
-0.16990477 -0.14095238 0.80000001 2.3356596e-38
-0.16838096 -0.14095238 0.80000001 2.3362326e-38
-0.16685714 -0.14095238 0.80000001 2.3360524e-38
-0.16574667 -0.14130478 0.80200005 2.3358722e-38
-0.1643143 -0.14271429 0.81000006 2.2802671e-38
-0.16277145 -0.14271429 0.81000006 2.1057072e-38
-0.16122858 -0.14271429 0.81000006 1.9311427e-38
-0.15968573 -0.14271429 0.81000006 1.5731226e-38
-0.15814288 -0.14271429 0.81000006 1.215503e-38
-0.1566 -0.14271429 0.81000006 1.2342655e-38
-0.21964 -0.13908 0.79800004 2.2502744e-38
-0.21812001 -0.13908 0.79800004 2.2410204e-38
-0.2166 -0.13908 0.79800004 2.2410559e-38
-0.21508001 -0.13908 0.79800004 2.2410913e-38
-0.21329239 -0.13890572 0.79700005 2.24102e-38
-0.21124287 -0.13855714 0.79500002 2.268535e-38
-0.20972858 -0.13855714 0.79500002 2.2961923e-38
-0.20769049 -0.13820857 0.79300004 2.268784e-38
-0.20618001 -0.13820857 0.79300004 2.250417e-38
-0.20466954 -0.13820857 0.79300004 2.268784e-38
-0.20315906 -0.13820857 0.79300004 2.2870797e-38
-0.20164859 -0.13820857 0.79300004 2.2778604e-38
-0.20013809 -0.13820857 0.79300004 2.2688205e-38
-0.19862762 -0.13820857 0.79300004 2.269e-38
-0.19711715 -0.13820857 0.79300004 2.2780043e-38
-0.19560668 -0.13820857 0.79300004 2.2778252e-38
-0.19409619 -0.13820857 0.79300004 2.278292e-38
-0.19258572 -0.13820857 0.79300004 2.3061659e-38
-0.19059333 -0.13786 0.79100001 2.3335734e-38
-0.18908666 -0.13786 0.79100001 2.3334302e-38
-0.18758 -0.13786 0.79100001 2.3340048e-38
-0.18607333 -0.13786 0.79100001 2.3345794e-38
-0.18456666 -0.13786 0.79100001 2.3347589e-38
-0.18305999 -0.13786 0.79100001 2.3349385e-38
-0.18155333 -0.13786 0.79100001 2.3347591e-38
-0.18050191 -0.13820857 0.79300004 2.3345798e-38
-0.17899144 -0.13820857 0.79300004 2.3343651e-38
-0.17792857 -0.13855714 0.79500002 2.3354419e-38
-0.17685811 -0.13890572 0.79700005 2.3354053e-38
-0.17556001 -0.13908 0.79800004 2.3353687e-38
-0.17404 -0.13908 0.79800004 2.335405e-38
-0.17252001 -0.13908 0.79800004 2.3354772e-38
-0.171 -0.13908 0.79800004 2.3354063e-38
-0.16948001 -0.13908 0.79800004 2.3353712e-38
-0.16838096 -0.13942859 0.80000001 2.33512e-38
-0.16685714 -0.13942859 0.80000001 2.3349047e-38
-0.16574667 -0.13977715 0.80200005 2.3347243e-38
-0.16421905 -0.13977715 0.80200005 2.2978096e-38
-0.15968573 -0.14117144 0.81000006 1.6649224e-38
-0.15814288 -0.14117144 0.81000006 1.2246872e-38
-0.15582286 -0.14186858 0.81400001 1.2894398e-38
-0.15427239 -0.14186858 0.81400001 1.271073e-38
-0.21964 -0.13756 0.79800004 2.2687864e-38
-0.21812001 -0.13756 0.79800004 2.2596048e-38
-0.2166 -0.13756 0.79800004 2.2412366e-38
-0.21508001 -0.13756 0.79800004 2.2411279e-38
-0.21329239 -0.13738762 0.79700005 2.2415589e-38
-0.21177429 -0.13738762 0.79700005 2.2597474e-38
-0.20972858 -0.13704287 0.79500002 2.2779697e-38
-0.20821428 -0.13704287 0.79500002 2.2690001e-38
-0.20618001 -0.1366981 0.79300004 2.2692511e-38
-0.20466954 -0.1366981 0.79300004 2.2875104e-38
-0.20315906 -0.1366981 0.79300004 2.3058059e-38
-0.20164859 -0.1366981 0.79300004 2.2965509e-38
-0.20013809 -0.1366981 0.79300004 2.2872955e-38
-0.19862762 -0.1366981 0.79300004 2.296479e-38
-0.19711715 -0.1366981 0.79300004 2.3056987e-38
-0.19560668 -0.1366981 0.79300004 2.2965874e-38
-0.19409619 -0.1366981 0.79300004 2.2966595e-38
-0.1921 -0.13635334 0.79100001 2.3149913e-38
-0.19059333 -0.13635334 0.79100001 2.3333225e-38
-0.18860857 -0.13600858 0.78900003 2.3336095e-38
-0.18710573 -0.13600858 0.78900003 2.3340045e-38
-0.18560286 -0.13600858 0.78900003 2.3343996e-38
-0.1841 -0.13600858 0.78900003 2.3345795e-38
-0.18305999 -0.13635334 0.79100001 2.3344366e-38
-0.18155333 -0.13635334 0.79100001 2.3343289e-38
-0.18050191 -0.1366981 0.79300004 2.3343289e-38
-0.17899144 -0.1366981 0.79300004 2.3343647e-38
-0.17792857 -0.13704287 0.79500002 2.334831e-38
-0.17685811 -0.13738762 0.79700005 2.3352971e-38
-0.17556001 -0.13756 0.79800004 2.3353328e-38
-0.17404 -0.13756 0.79800004 2.335369e-38
-0.17252001 -0.13756 0.79800004 2.3354053e-38
-0.171 -0.13756 0.79800004 2.3354414e-38
-0.16948001 -0.13756 0.79800004 2.3351189e-38
-0.16838096 -0.13790476 0.80000001 2.3347608e-38
-0.16685714 -0.13790476 0.80000001 2.3344028e-38
-0.16533333 -0.13790476 0.80000001 2.3336839e-38
-0.16421905 -0.13824953 0.80200005 2.2884822e-38
-0.16309714 -0.13859428 0.80400002 2.2431389e-38
-0.16196762 -0.13893907 0.80600005 2.1788905e-38
-0.16043238 -0.13893907 0.80600005 2.1054519e-38
-0.15889715 -0.13893907 0.80600005 1.729351e-38
-0.15698668 -0.13997333 0.81200004 1.2984091e-38
-0.15544 -0.13997333 0.81200004 1.2527062e-38
-0.15427239 -0.1403181 0.81400001 1.2527059e-38
-0.22019047 -0.13638094 0.80000001 2.2963361e-38
-0.21812001 -0.13604 0.79800004 2.2688942e-38
-0.2166 -0.13604 0.79800004 2.2503472e-38
-0.21508001 -0.13604 0.79800004 2.2411632e-38
-0.21329239 -0.13586953 0.79700005 2.2413431e-38
-0.21124287 -0.13552858 0.79500002 2.2507425e-38
-0.20972858 -0.13552858 0.79500002 2.2691806e-38
-0.20821428 -0.13552858 0.79500002 2.2784709e-38
-0.20618001 -0.13518763 0.79300004 2.2875469e-38
-0.20466954 -0.13518763 0.79300004 2.3058781e-38
-0.20315906 -0.13518763 0.79300004 2.3333213e-38
-0.20164859 -0.13518763 0.79300004 2.3147749e-38
-0.20013809 -0.13518763 0.79300004 2.3056281e-38
-0.19862762 -0.13518763 0.79300004 2.3148124e-38
-0.19711715 -0.13518763 0.79300004 2.3332508e-38
-0.19511333 -0.13484667 0.79100001 2.3241386e-38
-0.19360666 -0.13484667 0.79100001 2.3150275e-38
-0.1921 -0.13484667 0.79100001 2.3243193e-38
-0.19011143 -0.13450572 0.78900003 2.333646e-38
-0.18860857 -0.13450572 0.78900003 2.333789e-38
-0.18710573 -0.13450572 0.78900003 2.3340764e-38
-0.18560286 -0.13450572 0.78900003 2.3342562e-38
-0.1841 -0.13450572 0.78900003 2.3342925e-38
-0.18305999 -0.13484667 0.79100001 2.3343288e-38
-0.18155333 -0.13484667 0.79100001 2.3343645e-38
-0.18050191 -0.13518763 0.79300004 2.3344003e-38
-0.17899144 -0.13518763 0.79300004 2.3343287e-38
-0.17748097 -0.13518763 0.79300004 2.3342213e-38
-0.17685811 -0.13586953 0.79700005 2.3342929e-38
-0.17534001 -0.13586953 0.79700005 2.3344006e-38
-0.17404 -0.13604 0.79800004 2.3348315e-38
-0.17252001 -0.13604 0.79800004 2.3352623e-38
-0.171 -0.13604 0.79800004 2.3350467e-38
-0.16948001 -0.13604 0.79800004 2.3348669e-38
-0.16838096 -0.13638094 0.80000001 2.3349032e-38
-0.16685714 -0.13638094 0.80000001 2.3339352e-38
-0.16533333 -0.13638094 0.80000001 2.3335395e-38
-0.16421905 -0.13672192 0.80200005 2.2791904e-38
-0.16309714 -0.13706286 0.80400002 2.2331298e-38
-0.16156571 -0.13706286 0.80400002 2.1687381e-38
-0.16043238 -0.13740382 0.80600005 2.1145286e-38
-0.15889715 -0.13740382 0.80600005 1.7925254e-38
-0.15775238 -0.13774477 0.80800003 1.4816118e-38
-0.15698668 -0.13842668 0.81200004 1.3533647e-38
-0.15544 -0.13842668 0.81200004 1.2250827e-38
-0.15290953 -0.1389381 0.81500006 1.2435223e-38
-0.15135716 -0.1389381 0.81500006 1.2434509e-38
-0.22019047 -0.13485715 0.80000001 2.2507042e-38
-0.21812001 -0.13451999 0.79800004 2.2413417e-38
-0.2166 -0.13451999 0.79800004 2.2319431e-38
-0.21481049 -0.13435145 0.79700005 2.2319432e-38
-0.21329239 -0.13435145 0.79700005 2.2319438e-38
-0.21124287 -0.13401428 0.79500002 2.2413431e-38
-0.20920096 -0.13367715 0.79300004 2.2507416e-38
-0.20769049 -0.13367715 0.79300004 2.2599966e-38
-0.20618001 -0.13367715 0.79300004 2.2783279e-38
-0.20466954 -0.13367715 0.79300004 2.2875116e-38
-0.20264667 -0.13334 0.79100001 2.3057712e-38
-0.20164859 -0.13367715 0.79300004 2.3057354e-38
-0.20013809 -0.13367715 0.79300004 2.2965176e-38
-0.19862762 -0.13367715 0.79300004 2.305918e-38
-0.19711715 -0.13367715 0.79300004 2.3153514e-38
-0.19511333 -0.13334 0.79100001 2.3155656e-38
-0.19360666 -0.13334 0.79100001 2.3065981e-38
-0.19161429 -0.13300286 0.78900003 2.3156749e-38
-0.19011143 -0.13300286 0.78900003 2.3247499e-38
-0.18836953 -0.1328343 0.78800005 2.3248569e-38
-0.18710573 -0.13300286 0.78900003 2.3250006e-38
-0.18560286 -0.13300286 0.78900003 2.3250011e-38
-0.1841 -0.13300286 0.78900003 2.3250013e-38
-0.18305999 -0.13334 0.79100001 2.3249657e-38
-0.18155333 -0.13334 0.79100001 2.3249296e-38
-0.18050191 -0.13367715 0.79300004 2.3250011e-38
-0.17899144 -0.13367715 0.79300004 2.3342927e-38
-0.17748097 -0.13367715 0.79300004 2.3158902e-38
-0.17641428 -0.13401428 0.79500002 2.3066708e-38
-0.17534001 -0.13435145 0.79700005 2.3157828e-38
-0.17382191 -0.13435145 0.79700005 2.3340787e-38
-0.17230381 -0.13435145 0.79700005 2.3251468e-38
-0.171 -0.13451999 0.79800004 2.3254327e-38
-0.16948001 -0.13451999 0.79800004 2.3072797e-38
-0.16838096 -0.13485715 0.80000001 2.2983115e-38
-0.16685714 -0.13485715 0.80000001 2.2786891e-38
-0.16533333 -0.13485715 0.80000001 2.269146e-38
-0.16421905 -0.13519429 0.80200005 2.2420251e-38
-0.16269143 -0.13519429 0.80200005 2.2240176e-38
-0.16156571 -0.13553143 0.80400002 2.1593031e-38
-0.16043238 -0.13586858 0.80600005 2.0960547e-38
-0.15889715 -0.13586858 0.80600005 1.8110379e-38
-0.15698668 -0.13688 0.81200004 1.3808415e-38
-0.15544 -0.13688 0.81200004 1.2250455e-38
-0.15427239 -0.13721715 0.81400001 1.2435578e-38
-0.15290953 -0.13738571 0.81500006 1.2619609e-38
-0.15135716 -0.13738571 0.81500006 1.2527418e-38
-0.14980477 -0.13738571 0.81500006 1.2435578e-38
-0.22019047 -0.13333333 0.80000001 2.2139343e-38
-0.21812001 -0.133 0.79800004 2.2137911e-38
-0.2166 -0.133 0.79800004 2.2135758e-38
-0.21481049 -0.13283333 0.79700005 2.222867e-38
-0.21275714 -0.13249999 0.79500002 2.232015e-38
-0.21124287 -0.13249999 0.79500002 2.2319794e-38
-0.20920096 -0.13216667 0.79300004 2.2414149e-38
-0.20769049 -0.13216667 0.79300004 2.2508862e-38
-0.20618001 -0.13216667 0.79300004 2.2692171e-38
-0.20415334 -0.13183333 0.79100001 2.2783642e-38
-0.20264667 -0.13183333 0.79100001 2.2875834e-38
-0.20114 -0.13183333 0.79100001 2.2876552e-38
-0.19963333 -0.13183333 0.79100001 2.296481e-38
-0.19812667 -0.13183333 0.79100001 2.2969842e-38
-0.19662 -0.13183333 0.79100001 2.3062748e-38
-0.19462001 -0.13150001 0.78900003 2.3066689e-38
-0.19311716 -0.13150001 0.78900003 2.306705e-38
-0.19161429 -0.13150001 0.78900003 2.3159607e-38
-0.19011143 -0.13150001 0.78900003 2.3248209e-38
-0.18836953 -0.13133334 0.78800005 2.3157444e-38
-0.18686858 -0.13133334 0.78800005 2.3158521e-38
-0.18536763 -0.13133334 0.78800005 2.315924e-38
-0.1841 -0.13150001 0.78900003 2.3158527e-38
-0.18305999 -0.13183333 0.79100001 2.3157812e-38
-0.18155333 -0.13183333 0.79100001 2.3157811e-38
-0.18050191 -0.13216667 0.79300004 2.3249645e-38
-0.17899144 -0.13216667 0.79300004 2.3338618e-38
-0.17748097 -0.13216667 0.79300004 2.3060608e-38
-0.17641428 -0.13249999 0.79500002 2.2875139e-38
-0.1749 -0.13249999 0.79500002 2.3057014e-38
-0.17382191 -0.13283333 0.79700005 2.3331799e-38
-0.17230381 -0.13283333 0.79700005 2.32396e-38
-0.171 -0.133 0.79800004 2.3239243e-38
-0.16948001 -0.133 0.79800004 2.2871544e-38
-0.16838096 -0.13333333 0.80000001 2.2598906e-38
-0.16685714 -0.13333333 0.80000001 2.2326628e-38
-0.16533333 -0.13333333 0.80000001 2.2140797e-38
-0.16421905 -0.13366666 0.80200005 2.2141149e-38
-0.16269143 -0.13366666 0.80200005 2.2141518e-38
-0.16156571 -0.13399999 0.80400002 2.1407201e-38
-0.16043238 -0.13433333 0.80600005 2.0774007e-38
-0.15889715 -0.13433333 0.80600005 1.8295852e-38
-0.15814288 -0.13500002 0.81000006 1.5916353e-38
-0.15698668 -0.13533334 0.81200004 1.4083202e-38
-0.15544 -0.13533334 0.81200004 1.225117e-38
-0.15427239 -0.13566667 0.81400001 1.2527767e-38
-0.15272191 -0.13566667 0.81400001 1.2803279e-38
-0.15135716 -0.13583335 0.81500006 1.2619615e-38
-0.14980477 -0.13583335 0.81500006 1.2435586e-38
-0.21812001 -0.13147999 0.79800004 2.1861329e-38
-0.2166 -0.13147999 0.79800004 2.1860252e-38
-0.21481049 -0.13131525 0.79700005 2.1952803e-38
-0.21275714 -0.13098572 0.79500002 2.2045356e-38
-0.21124287 -0.13098572 0.79500002 2.2045356e-38
-0.20920096 -0.1306562 0.79300004 2.2137211e-38
-0.20769049 -0.1306562 0.79300004 2.2320902e-38
-0.20566 -0.13032667 0.79100001 2.2504921e-38
-0.20415334 -0.13032667 0.79100001 2.2507781e-38
-0.20264667 -0.13032667 0.79100001 2.2508853e-38
-0.20114 -0.13032667 0.79100001 2.2600327e-38
-0.19963333 -0.13032667 0.79100001 2.2689296e-38
-0.19812667 -0.13032667 0.79100001 2.2694323e-38
-0.19662 -0.13032667 0.79100001 2.2696475e-38
-0.19462001 -0.12999715 0.78900003 2.2696117e-38
-0.19311716 -0.12999715 0.78900003 2.2695756e-38
-0.19161429 -0.12999715 0.78900003 2.2695039e-38
-0.18987049 -0.12983239 0.78800005 2.2694317e-38
-0.18836953 -0.12983239 0.78800005 2.2788661e-38
-0.18686858 -0.12983239 0.78800005 2.2975559e-38
-0.18560286 -0.12999715 0.78900003 2.2971972e-38
-0.1841 -0.12999715 0.78900003 2.2876912e-38
-0.18305999 -0.13032667 0.79100001 2.2973774e-38
-0.18155333 -0.13032667 0.79100001 2.2975566e-38
-0.18050191 -0.1306562 0.79300004 2.2879067e-38
-0.17899144 -0.1306562 0.79300004 2.2784372e-38
-0.17748097 -0.1306562 0.79300004 2.2599636e-38
-0.17641428 -0.13098572 0.79500002 2.250313e-38
-0.17534001 -0.13131525 0.79700005 2.250671e-38
-0.17382191 -0.13131525 0.79700005 2.2510642e-38
-0.17230381 -0.13131525 0.79700005 2.2504171e-38
-0.171 -0.13147999 0.79800004 2.2503107e-38
-0.16948001 -0.13147999 0.79800004 2.2412721e-38
-0.16838096 -0.13180953 0.80000001 2.2322317e-38
-0.16685714 -0.13180953 0.80000001 2.214259e-38
-0.16533333 -0.13180953 0.80000001 2.1957477e-38
-0.16421905 -0.13213904 0.80200005 2.1957471e-38
-0.16269143 -0.13213904 0.80200005 2.1957481e-38
-0.16156571 -0.13246858 0.80400002 2.131536e-38
-0.16043238 -0.13279809 0.80600005 2.0587827e-38
-0.15929143 -0.13312763 0.80800003 1.8387697e-38
-0.15814288 -0.13345714 0.81000006 1.6192581e-38
-0.1566 -0.13345714 0.81000006 1.4175397e-38
-0.15427239 -0.13411619 0.81400001 1.2344091e-38
-0.15272191 -0.13411619 0.81400001 1.2436295e-38
-0.15135716 -0.13428096 0.81500006 1.2435588e-38
-0.14980477 -0.13428096 0.81500006 1.2435595e-38
-0.21866667 -0.13028571 0.80000001 2.1587254e-38
-0.2166 -0.12996 0.79800004 2.1675856e-38
-0.21481049 -0.12979715 0.79700005 2.167693e-38
-0.21329239 -0.12979715 0.79700005 2.1769127e-38
-0.21124287 -0.12947144 0.79500002 2.1863117e-38
-0.20920096 -0.12914573 0.79300004 2.1953172e-38
-0.20769049 -0.12914573 0.79300004 2.2139725e-38
-0.20618001 -0.12914573 0.79300004 2.2323392e-38
-0.20466954 -0.12914573 0.79300004 2.2231911e-38
-0.20264667 -0.12882 0.79100001 2.2140433e-38
-0.20164859 -0.12914573 0.79300004 2.2324463e-38
-0.19963333 -0.12882 0.79100001 2.2504548e-38
-0.19812667 -0.12882 0.79100001 2.2419172e-38
-0.19662 -0.12882 0.79100001 2.241917e-38
-0.19462001 -0.12849429 0.78900003 2.2419167e-38
-0.19311716 -0.12849429 0.78900003 2.2420958e-38
-0.19137144 -0.12833142 0.78800005 2.2239079e-38
-0.18987049 -0.12833142 0.78800005 2.214581e-38
-0.18836953 -0.12833142 0.78800005 2.2512077e-38
-0.18710573 -0.12849429 0.78900003 2.2882289e-38
-0.18560286 -0.12849429 0.78900003 2.2781128e-38
-0.18456666 -0.12882 0.79100001 2.269073e-38
-0.18305999 -0.12882 0.79100001 2.2789742e-38
-0.18155333 -0.12882 0.79100001 2.2878706e-38
-0.18004666 -0.12882 0.79100001 2.2508851e-38
-0.17899144 -0.12914573 0.79300004 2.2231913e-38
-0.17748097 -0.12914573 0.79300004 2.223048e-38
-0.17597048 -0.12914573 0.79300004 2.2231194e-38
-0.17446001 -0.12914573 0.79300004 2.1956401e-38
-0.17338572 -0.12947144 0.79500002 2.1770572e-38
-0.17230381 -0.12979715 0.79700005 2.1768774e-38
-0.17078573 -0.12979715 0.79700005 2.1769139e-38
-0.16948001 -0.12996 0.79800004 2.1866722e-38
-0.16796 -0.12996 0.79800004 2.205039e-38
-0.16685714 -0.13028571 0.80000001 2.1866716e-38
-0.16533333 -0.13028571 0.80000001 2.1774159e-38
-0.16421905 -0.13061143 0.80200005 2.1773439e-38
-0.16269143 -0.13061143 0.80200005 2.1865641e-38
-0.16156571 -0.13093714 0.80400002 2.1131682e-38
-0.16043238 -0.13126285 0.80600005 2.0495987e-38
-0.15929143 -0.13158856 0.80800003 1.8479888e-38
-0.15814288 -0.13191429 0.81000006 1.646737e-38
-0.15698668 -0.13224 0.81200004 1.4267954e-38
-0.15544 -0.13224 0.81200004 1.2159332e-38
-0.15427239 -0.13256571 0.81400001 1.2161491e-38
-0.15272191 -0.13256571 0.81400001 1.2160426e-38
-0.15135716 -0.13272858 0.81500006 1.2343391e-38
-0.2166 -0.12843999 0.79800004 2.130815e-38
-0.21508001 -0.12843999 0.79800004 2.1309222e-38
-0.21329239 -0.12827906 0.79700005 2.1401062e-38
-0.21177429 -0.12827906 0.79700005 2.1401426e-38
-0.20769049 -0.12763526 0.79300004 2.1493632e-38
-0.20618001 -0.12763526 0.79300004 2.1585468e-38
-0.20466954 -0.12763526 0.79300004 2.158583e-38
-0.20315906 -0.12763526 0.79300004 2.1586549e-38
-0.20164859 -0.12763526 0.79300004 2.1769505e-38
-0.19963333 -0.12731333 0.79100001 2.1860982e-38
-0.19812667 -0.12731333 0.79100001 2.1952459e-38
-0.19662 -0.12731333 0.79100001 2.2044289e-38
-0.19462001 -0.12699144 0.78900003 2.2139347e-38
-0.19311716 -0.12699144 0.78900003 2.2148671e-38
-0.19161429 -0.12699144 0.78900003 2.1958182e-38
-0.19011143 -0.12699144 0.78900003 2.177057e-38
-0.18860857 -0.12699144 0.78900003 2.1958193e-38
-0.18710573 -0.12699144 0.78900003 2.2238007e-38
-0.18560286 -0.12699144 0.78900003 2.2228324e-38
-0.18456666 -0.12731333 0.79100001 2.2321236e-38
-0.18352287 -0.12763526 0.79300004 2.2136847e-38
-0.18201238 -0.12763526 0.79300004 2.204465e-38
-0.18050191 -0.12763526 0.79300004 2.1957834e-38
-0.17899144 -0.12763526 0.79300004 2.1869582e-38
-0.17748097 -0.12763526 0.79300004 2.195388e-38
-0.17597048 -0.12763526 0.79300004 2.1958542e-38
-0.1749 -0.12795714 0.79500002 2.1770923e-38
-0.17338572 -0.12795714 0.79500002 2.158582e-38
-0.17230381 -0.12827906 0.79700005 2.167766e-38
-0.171 -0.12843999 0.79800004 2.1770214e-38
-0.16948001 -0.12843999 0.79800004 2.1678739e-38
-0.16838096 -0.1287619 0.80000001 2.1679093e-38
-0.16685714 -0.1287619 0.80000001 2.1586538e-38
-0.16533333 -0.1287619 0.80000001 2.1493985e-38
-0.16309714 -0.12940572 0.80400002 2.1494349e-38
-0.16196762 -0.12972762 0.80600005 2.0855093e-38
-0.16043238 -0.12972762 0.80600005 2.0220835e-38
-0.15929143 -0.13004953 0.80800003 1.838554e-38
-0.15814288 -0.13037144 0.81000006 1.6558848e-38
-0.1566 -0.13037144 0.81000006 1.4266882e-38
-0.15544 -0.13069335 0.81200004 1.2067137e-38
-0.15389334 -0.13069335 0.81200004 1.2159334e-38
-0.15272191 -0.13101523 0.81400001 1.2343735e-38
-0.15135716 -0.1311762 0.81500006 1.2343748e-38
-0.2166 -0.12692 0.79800004 2.0942598e-38
-0.21481049 -0.12676096 0.79700005 2.0943312e-38
-0.21275714 -0.12644285 0.79500002 2.1034796e-38
-0.21124287 -0.12644285 0.79500002 2.1034446e-38
-0.20920096 -0.12612475 0.79300004 2.1126644e-38
-0.20769049 -0.12612475 0.79300004 2.0943337e-38
-0.20618001 -0.12612475 0.79300004 2.0849348e-38
-0.20466954 -0.12612475 0.79300004 2.0939747e-38
-0.20315906 -0.12612475 0.79300004 2.1124853e-38
-0.20164859 -0.12612475 0.79300004 2.1218482e-38
-0.20013809 -0.12612475 0.79300004 2.1310318e-38
-0.19862762 -0.12612475 0.79300004 2.1494349e-38
-0.19662 -0.12580666 0.79100001 2.1768775e-38
-0.19511333 -0.12580666 0.79100001 2.185989e-38
-0.19360666 -0.12580666 0.79100001 2.1952442e-38
-0.19161429 -0.12548856 0.78900003 2.1677653e-38
-0.19011143 -0.12548856 0.78900003 2.1492911e-38
-0.18908666 -0.12580666 0.79100001 2.1491123e-38
-0.18758 -0.12580666 0.79100001 2.1583316e-38
-0.18607333 -0.12580666 0.79100001 2.1767703e-38
-0.18456666 -0.12580666 0.79100001 2.1953885e-38
-0.18352287 -0.12612475 0.79300004 2.1585467e-38
-0.18050191 -0.12612475 0.79300004 2.1407176e-38
-0.17899144 -0.12612475 0.79300004 2.1587974e-38
-0.17748097 -0.12612475 0.79300004 2.1677297e-38
-0.17597048 -0.12612475 0.79300004 2.1768055e-38
-0.1749 -0.12644285 0.79500002 2.1583665e-38
-0.17338572 -0.12644285 0.79500002 2.1401073e-38
