# .PCD v0.7 - Point Cloud Data file format
VERSION 0.7
FIELDS x y z rgb
SIZE 4 4 4 4
TYPE F F F F
COUNT 1 1 1 1
WIDTH 990
HEIGHT 1
VIEWPOINT 0 0 0 1 0 0 0
POINTS 990
DATA ascii
0.20938288 -0.081801906 0.78800005 1.7599618e-38
0.21034856 -0.081594288 0.78600001 1.7693244e-38
0.21184571 -0.081594288 0.78600001 1.7785081e-38
0.21280001 -0.08138667 0.78400004 1.7968755e-38
0.21374668 -0.081179053 0.78200006 1.8152782e-38
0.2152362 -0.081179053 0.78200006 1.8153498e-38
0.21617144 -0.080971435 0.78000003 1.8247487e-38
0.21737809 -0.080867618 0.77900004 1.806346e-38
0.21886191 -0.080867618 0.77900004 1.7971611e-38
0.22034572 -0.080867618 0.77900004 1.815491e-38
0.22182953 -0.080867618 0.77900004 1.8338597e-38
0.22331335 -0.080867618 0.77900004 1.8429732e-38
0.22479716 -0.080867618 0.77900004 1.8520134e-38
0.22628097 -0.080867618 0.77900004 1.8614124e-38
0.22776477 -0.080867618 0.77900004 1.879851e-38
0.22924858 -0.080867618 0.77900004 1.8890344e-38
0.2307324 -0.080867618 0.77900004 1.8982187e-38
0.23221619 -0.080867618 0.77900004 1.8891434e-38
0.23400001 -0.080971435 0.78000003 1.8892506e-38
0.23548572 -0.080971435 0.78000003 1.9262715e-38
0.23697144 -0.080971435 0.78000003 1.9725113e-38
0.23906858 -0.081179053 0.78200006 1.7602126e-38
0.2405581 -0.081179053 0.78200006 1.5466543e-38
0.24416001 -0.08138667 0.78400004 1.2251545e-38
0.24627998 -0.081594288 0.78600001 1.2436663e-38
0.24777715 -0.081594288 0.78600001 1.2712903e-38
0.24927428 -0.081594288 0.78600001 1.2529609e-38
0.19832 -0.081931427 0.80400002 1.9074378e-38
0.19935429 -0.081727624 0.80200005 1.889143e-38
0.20088191 -0.081727624 0.80200005 1.8798872e-38
0.20190476 -0.081523806 0.80000001 1.8706314e-38
0.20292 -0.081320003 0.79800004 1.8705951e-38
0.20418383 -0.081218101 0.79700005 1.8614113e-38
0.20518573 -0.08101429 0.79500002 1.8521563e-38
0.20618001 -0.08081048 0.79300004 1.8429014e-38
0.20716667 -0.080606669 0.79100001 1.8428657e-38
0.20814572 -0.080402859 0.78900003 1.8060958e-38
0.20964858 -0.080402859 0.78900003 1.7785448e-38
0.21088381 -0.080300957 0.78800005 1.7785445e-38
0.21238478 -0.080300957 0.78800005 1.7877281e-38
0.21334286 -0.080097146 0.78600001 1.8061312e-38
0.21429335 -0.079893336 0.78400004 1.8245703e-38
0.21578667 -0.079893336 0.78400004 1.8338259e-38
0.21672572 -0.079689525 0.78200006 1.8430451e-38
0.21765715 -0.079485722 0.78000003 1.8431167e-38
0.21914285 -0.079485722 0.78000003 1.8431162e-38
0.22034572 -0.079383813 0.77900004 1.8522994e-38
0.22182953 -0.079383813 0.77900004 1.8614835e-38
0.22331335 -0.079383813 0.77900004 1.8615201e-38
0.22479716 -0.079383813 0.77900004 1.8706677e-38
0.22628097 -0.079383813 0.77900004 1.888999e-38
0.22776477 -0.079383813 0.77900004 1.9074021e-38
0.22924858 -0.079383813 0.77900004 1.907474e-38
0.23102859 -0.079485722 0.78000003 1.9166941e-38
0.23221619 -0.079383813 0.77900004 1.9167665e-38
0.23400001 -0.079485722 0.78000003 1.9170176e-38
0.23548572 -0.079485722 0.78000003 1.9540029e-38
0.23968001 -0.079893336 0.78400004 1.7507062e-38
0.24117334 -0.079893336 0.78400004 1.5097409e-38
0.24328572 -0.080097146 0.78600001 1.3715525e-38
0.24478285 -0.080097146 0.78600001 1.2434856e-38
0.24627998 -0.080097146 0.78600001 1.2619968e-38
0.24840762 -0.080300957 0.78800005 1.2804373e-38
0.2499086 -0.080300957 0.78800005 1.2529602e-38
0.25140953 -0.080300957 0.78800005 1.234628e-38
0.19727811 -0.080600001 0.80600005 1.9259478e-38
0.19832 -0.080400005 0.80400002 1.9258776e-38
0.19985144 -0.080400005 0.80400002 1.9166956e-38
0.20088191 -0.080200009 0.80200005 1.9075107e-38
0.20190476 -0.079999998 0.80000001 1.8982898e-38
0.20292 -0.079800002 0.79800004 1.8982538e-38
0.20418383 -0.079700001 0.79700005 1.879815e-38
0.20518573 -0.079499997 0.79500002 1.8706676e-38
0.20618001 -0.079300009 0.79300004 1.8706321e-38
0.20716667 -0.079099998 0.79100001 1.87978e-38
0.20814572 -0.078900002 0.78900003 1.8613412e-38
0.20964858 -0.078900002 0.78900003 1.8520857e-38
0.21088381 -0.078800008 0.78800005 1.861305e-38
0.21238478 -0.078800008 0.78800005 1.8613766e-38
0.21334286 -0.078599997 0.78600001 1.8613764e-38
0.21483999 -0.078599997 0.78600001 1.8613771e-38
0.21578667 -0.078400008 0.78400004 1.8706691e-38
0.21728002 -0.078400008 0.78400004 1.8708121e-38
0.21821526 -0.078200005 0.78200006 1.8707398e-38
0.21970478 -0.078200005 0.78200006 1.8706684e-38
0.22062857 -0.078000002 0.78000003 1.8798883e-38
0.22211429 -0.078000002 0.78000003 1.8891431e-38
0.22360002 -0.078000002 0.78000003 1.8891429e-38
0.22508572 -0.078000002 0.78000003 1.8983622e-38
0.22657144 -0.078000002 0.78000003 1.9076173e-38
0.22805715 -0.078000002 0.78000003 1.9260924e-38
0.22954285 -0.078000002 0.78000003 1.9259854e-38
0.23162098 -0.078200005 0.78200006 1.9350978e-38
0.23311049 -0.078200005 0.78200006 1.9444972e-38
0.23460001 -0.078200005 0.78200006 1.9448205e-38
0.23669335 -0.078400008 0.78400004 1.9815551e-38
0.23818667 -0.078400008 0.78400004 2.009211e-38
0.24029143 -0.078599997 0.78600001 1.7505627e-38
0.24178858 -0.078599997 0.78600001 1.4820112e-38
0.24328572 -0.078599997 0.78600001 1.3623335e-38
0.24540573 -0.078800008 0.78800005 1.2342661e-38
0.24690668 -0.078800008 0.78800005 1.2620321e-38
0.24840762 -0.078800008 0.78800005 1.2895844e-38
0.2499086 -0.078800008 0.78800005 1.2712908e-38
0.25140953 -0.078800008 0.78800005 1.252995e-38
0.19727811 -0.079064764 0.80600005 1.9534992e-38
0.19832 -0.078868575 0.80400002 1.9442806e-38
0.19935429 -0.078672379 0.80200005 1.9442456e-38
0.20088191 -0.078672379 0.80200005 1.9442449e-38
0.20190476 -0.078476191 0.80000001 1.9350965e-38
0.20292 -0.078280002 0.79800004 1.9258052e-38
0.20418383 -0.078181908 0.79700005 1.9073662e-38
0.20570192 -0.078181908 0.79700005 1.8982547e-38
0.2067 -0.077985719 0.79500002 1.9075102e-38
0.20769049 -0.077789523 0.79300004 1.9166579e-38
0.20867334 -0.077593334 0.79100001 1.9258056e-38
0.21018 -0.077593334 0.79100001 1.9350603e-38
0.21115144 -0.077397145 0.78900003 1.9351315e-38
0.21238478 -0.077299051 0.78800005 1.9443509e-38
0.21388572 -0.077299051 0.78800005 1.9260197e-38
0.21483999 -0.077102855 0.78600001 1.9076173e-38
0.21633714 -0.077102855 0.78600001 1.9076179e-38
0.21728002 -0.076906674 0.78400004 1.9076535e-38
0.21877334 -0.076906674 0.78400004 1.898685e-38
0.21970478 -0.076710477 0.78200006 1.8985774e-38
0.22062857 -0.076514289 0.78000003 1.9076892e-38
0.22211429 -0.076514289 0.78000003 1.9169088e-38
0.22360002 -0.076514289 0.78000003 1.9169448e-38
0.22508572 -0.076514289 0.78000003 1.9261285e-38
0.22715241 -0.076710477 0.78200006 1.935348e-38
0.22864193 -0.076710477 0.78200006 1.9445676e-38
0.23013145 -0.076710477 0.78200006 1.953787e-38
0.23221333 -0.076906674 0.78400004 1.9630066e-38
0.23370668 -0.076906674 0.78400004 1.9722263e-38
0.2352 -0.076906674 0.78400004 1.9815903e-38
0.23669335 -0.076906674 0.78400004 2.0091421e-38
0.2387943 -0.077102855 0.78600001 2.0367973e-38
0.24029143 -0.077102855 0.78600001 1.7504181e-38
0.24240382 -0.077299051 0.78800005 1.463751e-38
0.24390477 -0.077299051 0.78800005 1.3439301e-38
0.24540573 -0.077299051 0.78800005 1.2344098e-38
0.24722002 -0.077397145 0.78900003 1.2621045e-38
0.24872285 -0.077397145 0.78900003 1.2988396e-38
0.25022572 -0.077397145 0.78900003 1.2896569e-38
0.25140953 -0.077299051 0.78800005 1.2805449e-38
0.19727811 -0.077529527 0.80600005 1.9719387e-38
0.19832 -0.077337146 0.80400002 1.9719389e-38
0.19985144 -0.077337146 0.80400002 1.9627915e-38
0.20088191 -0.077144764 0.80200005 1.9628273e-38
0.20190476 -0.076952383 0.80000001 1.9444602e-38
0.20292 -0.076760009 0.79800004 1.9352764e-38
0.20418383 -0.076663807 0.79700005 1.9260208e-38
0.20570192 -0.076663807 0.79700005 1.9167658e-38
0.2067 -0.076471426 0.79500002 1.9167302e-38
0.20769049 -0.076279052 0.79300004 1.9167301e-38
0.20867334 -0.076086663 0.79100001 1.9259135e-38
0.21018 -0.076086663 0.79100001 1.9442796e-38
0.21115144 -0.075894289 0.78900003 1.9352387e-38
0.21238478 -0.075798102 0.78800005 1.9353463e-38
0.21388572 -0.075798102 0.78800005 1.9353465e-38
0.21483999 -0.075605713 0.78600001 1.9353826e-38
0.21633714 -0.075605713 0.78600001 1.9353472e-38
0.21728002 -0.075413339 0.78400004 1.9353114e-38
0.21877334 -0.075413339 0.78400004 1.9353476e-38
0.21970478 -0.075220957 0.78200006 1.9353829e-38
0.2211943 -0.075220957 0.78200006 1.9446737e-38
0.22268383 -0.075220957 0.78200006 1.9539655e-38
0.22417335 -0.075220957 0.78200006 1.9537151e-38
0.22566287 -0.075220957 0.78200006 1.9537873e-38
0.22715241 -0.075220957 0.78200006 1.9629354e-38
0.22922668 -0.075413339 0.78400004 1.9721185e-38
0.23072001 -0.075413339 0.78400004 1.9814094e-38
0.23221333 -0.075413339 0.78400004 1.9907003e-38
0.23370668 -0.075413339 0.78400004 1.9999194e-38
0.2352 -0.075413339 0.78400004 2.0091766e-38
0.23729715 -0.075605713 0.78600001 2.0368008e-38
0.2387943 -0.075605713 0.78600001 2.0736029e-38
0.24029143 -0.075605713 0.78600001 1.7596007e-38
0.2442143 -0.075894289 0.78900003 1.353795e-38
0.24634001 -0.076086663 0.79100001 1.2529206e-38
0.24784668 -0.076086663 0.79100001 1.2712531e-38
0.24872285 -0.075894289 0.78900003 1.2988036e-38
0.25086001 -0.076086663 0.79100001 1.2988394e-38
0.25172856 -0.075894289 0.78900003 1.2989112e-38
0.19881335 -0.07599429 0.80600005 1.9995971e-38
0.19985144 -0.075805716 0.80400002 1.9904139e-38
0.20088191 -0.075617142 0.80200005 1.990414e-38
0.20190476 -0.075428575 0.80000001 1.9628994e-38
0.20292 -0.075240009 0.79800004 1.9444963e-38
0.20418383 -0.075145721 0.79700005 1.9352768e-38
0.20518573 -0.074957147 0.79500002 1.9351694e-38
0.2067 -0.074957147 0.79500002 1.9262371e-38
0.20769049 -0.074768573 0.79300004 1.9260574e-38
0.20867334 -0.074579999 0.79100001 1.9352408e-38
0.21018 -0.074579999 0.79100001 1.953679e-38
0.21115144 -0.074391425 0.78900003 1.9445666e-38
0.21238478 -0.074297145 0.78800005 1.9353472e-38
0.21388572 -0.074297145 0.78800005 1.9445307e-38
0.21483999 -0.074108571 0.78600001 1.9628981e-38
0.21633714 -0.074108571 0.78600001 1.9628984e-38
0.21783428 -0.074108571 0.78600001 1.9720462e-38
0.21933143 -0.074108571 0.78600001 1.9720465e-38
0.22026668 -0.073920004 0.78400004 1.981409e-38
0.22176 -0.073920004 0.78400004 1.9814804e-38
0.22325334 -0.073920004 0.78400004 1.9905572e-38
0.22474667 -0.073920004 0.78400004 1.9904863e-38
0.22624001 -0.073920004 0.78400004 1.990522e-38
0.22773334 -0.073920004 0.78400004 1.9997773e-38
0.22922668 -0.073920004 0.78400004 2.0090328e-38
0.23072001 -0.073920004 0.78400004 2.0182884e-38
0.23221333 -0.073920004 0.78400004 2.027472e-38
0.23430286 -0.074108571 0.78600001 2.0276158e-38
0.23580001 -0.074108571 0.78600001 2.0368718e-38
0.23729715 -0.074108571 0.78600001 2.0739296e-38
0.2387943 -0.074108571 0.78600001 2.1104446e-38
0.24090287 -0.074297145 0.78800005 1.7780035e-38
0.24271144 -0.074391425 0.78900003 1.4456704e-38
0.24483334 -0.074579999 0.79100001 1.3626565e-38
0.24634001 -0.074579999 0.79100001 1.2804719e-38
0.24784668 -0.074579999 0.79100001 1.2896206e-38
0.24935335 -0.074579999 0.79100001 1.2988396e-38
0.25086001 -0.074579999 0.79100001 1.3080587e-38
0.19776762 -0.074643806 0.80800003 2.0180356e-38
0.19881335 -0.074459054 0.80600005 2.0180358e-38
0.19985144 -0.074274287 0.80400002 2.0088527e-38
0.20088191 -0.074089527 0.80200005 1.9997053e-38
0.20190476 -0.07390476 0.80000001 1.9813386e-38
0.20342858 -0.07390476 0.80000001 1.972191e-38
0.20444 -0.073720008 0.79800004 1.9628999e-38
0.20570192 -0.073627621 0.79700005 1.9536088e-38
0.2067 -0.073442854 0.79500002 1.9536089e-38
0.20769049 -0.073258102 0.79300004 1.9536444e-38
0.20920096 -0.073258102 0.79300004 1.9536082e-38
0.21018 -0.073073328 0.79100001 1.962899e-38
0.21115144 -0.072888575 0.78900003 1.9537869e-38
0.21238478 -0.072796196 0.78800005 1.9538226e-38
0.21388572 -0.072796196 0.78800005 1.9629344e-38
0.21483999 -0.072611429 0.78600001 1.9812658e-38
0.21633714 -0.072611429 0.78600001 1.9812302e-38
0.21783428 -0.072611429 0.78600001 1.9812305e-38
0.21933143 -0.072611429 0.78600001 1.9905578e-38
0.22026668 -0.072426669 0.78400004 1.9998845e-38
0.22176 -0.072426669 0.78400004 1.9906648e-38
0.22325334 -0.072426669 0.78400004 1.9904147e-38
0.22474667 -0.072426669 0.78400004 1.9998146e-38
0.22624001 -0.072426669 0.78400004 1.9999574e-38
0.22773334 -0.072426669 0.78400004 2.0091763e-38
0.22922668 -0.072426669 0.78400004 2.0276158e-38
0.23072001 -0.072426669 0.78400004 2.0275808e-38
0.23280571 -0.072611429 0.78600001 2.0367292e-38
0.23430286 -0.072611429 0.78600001 2.0460929e-38
0.23580001 -0.072611429 0.78600001 2.0645672e-38
0.23790097 -0.072796196 0.78800005 2.0921533e-38
0.23940191 -0.072796196 0.78800005 2.1289552e-38
0.24090287 -0.072796196 0.78800005 1.8057693e-38
0.24271144 -0.072888575 0.78900003 1.473365e-38
0.24483334 -0.073073328 0.79100001 1.3814908e-38
0.24634001 -0.073073328 0.79100001 1.2804726e-38
0.24847333 -0.073258102 0.79300004 1.2805811e-38
0.2499838 -0.073258102 0.79300004 1.2898716e-38
0.25149429 -0.073258102 0.79300004 1.308238e-38
0.19622858 -0.073104762 0.80800003 2.0272916e-38
0.19776762 -0.073104762 0.80800003 2.027327e-38
0.19881335 -0.072923817 0.80600005 2.0364392e-38
0.19985144 -0.072742864 0.80400002 2.0180365e-38
0.20088191 -0.072561905 0.80200005 2.0089247e-38
0.20190476 -0.072380953 0.80000001 1.9998129e-38
0.20342858 -0.072380953 0.80000001 1.9998131e-38
0.20444 -0.072200008 0.79800004 1.981482e-38
0.20596001 -0.072200008 0.79800004 1.9721192e-38
0.20722 -0.072109528 0.79700005 1.971976e-38
0.20821428 -0.071928576 0.79500002 1.9811591e-38
0.20920096 -0.071747623 0.79300004 1.9719752e-38
0.21071143 -0.071747623 0.79300004 1.9721544e-38
0.21168666 -0.071566671 0.79100001 1.97219e-38
0.21319333 -0.071566671 0.79100001 1.9813737e-38
0.21415715 -0.071385719 0.78900003 1.9905932e-38
0.21566001 -0.071385719 0.78900003 1.9998128e-38
0.21688762 -0.071295246 0.78800005 1.9998488e-38
0.21838859 -0.071295246 0.78800005 1.9998848e-38
0.21988954 -0.071295246 0.78800005 2.0091044e-38
0.22082858 -0.071114287 0.78600001 2.0182522e-38
0.22232571 -0.071114287 0.78600001 2.0090689e-38
0.22325334 -0.070933335 0.78400004 1.9999221e-38
0.22532 -0.071114287 0.78600001 2.0091424e-38
0.22681715 -0.071114287 0.78600001 2.0183614e-38
0.2283143 -0.071114287 0.78600001 2.0275805e-38
0.22981143 -0.071114287 0.78600001 2.0459483e-38
0.23130858 -0.071114287 0.78600001 2.045985e-38
0.23280571 -0.071114287 0.78600001 2.0551686e-38
0.23489906 -0.071295246 0.78800005 2.073751e-38
0.23640001 -0.071295246 0.78800005 2.0922616e-38
0.23790097 -0.071295246 0.78800005 2.1200275e-38
0.23970573 -0.071385719 0.78900003 2.1566496e-38
0.24181999 -0.071566671 0.79100001 1.8335709e-38
0.24332666 -0.071566671 0.79100001 1.5099554e-38
0.24483334 -0.071566671 0.79100001 1.3990326e-38
0.24909998 -0.071928576 0.79500002 1.2807606e-38
0.2499838 -0.071747623 0.79300004 1.2807244e-38
0.25212857 -0.071928576 0.79500002 1.317566e-38
0.19622858 -0.071565717 0.80800003 2.0365471e-38
0.19776762 -0.071565717 0.80800003 2.036511e-38
0.19881335 -0.07138858 0.80600005 2.0364754e-38
0.19985144 -0.071211427 0.80400002 2.027364e-38
0.20088191 -0.07103429 0.80200005 2.0182518e-38
0.20190476 -0.070857145 0.80000001 2.0182514e-38
0.20342858 -0.070857145 0.80000001 2.009068e-38
0.20444 -0.07068 0.79800004 1.9998847e-38
0.20570192 -0.070591427 0.79700005 1.9907014e-38
0.20722 -0.070591427 0.79700005 1.9905942e-38
0.20821428 -0.07041429 0.79500002 1.990522e-38
0.20920096 -0.070237145 0.79300004 1.9905575e-38
0.21071143 -0.070237145 0.79300004 1.9814097e-38
0.21168666 -0.07006 0.79100001 1.9905932e-38
0.21265429 -0.069882862 0.78900003 1.9905935e-38
0.2147 -0.07006 0.79100001 1.9906298e-38
0.21566001 -0.069882862 0.78900003 1.9906657e-38
0.21716286 -0.069882862 0.78900003 1.9814821e-38
0.21838859 -0.06979429 0.78800005 1.981518e-38
0.21988954 -0.06979429 0.78800005 1.9999211e-38
0.22082858 -0.069617145 0.78600001 2.0183247e-38
0.22232571 -0.069617145 0.78600001 2.0182895e-38
0.22382286 -0.069617145 0.78600001 2.01829e-38
0.22532 -0.069617145 0.78600001 2.027546e-38
0.22681715 -0.069617145 0.78600001 2.0368729e-38
0.2283143 -0.069617145 0.78600001 2.0459489e-38
0.22981143 -0.069617145 0.78600001 2.0643167e-38
0.23130858 -0.069617145 0.78600001 2.0735728e-38
0.23339809 -0.06979429 0.78800005 2.0736438e-38
0.23489906 -0.06979429 0.78800005 2.0922256e-38
0.2367 -0.069882862 0.78900003 2.1108084e-38
0.23820285 -0.069882862 0.78900003 2.1383953e-38
0.23970573 -0.069882862 0.78900003 2.1751606e-38
0.24181999 -0.07006 0.79100001 1.8519738e-38
0.24332666 -0.07006 0.79100001 1.5281789e-38
0.24545239 -0.070237145 0.79300004 1.4082158e-38
0.24758571 -0.07041429 0.79500002 1.2895843e-38
0.24909998 -0.07041429 0.79500002 1.2989486e-38
0.25061432 -0.07041429 0.79500002 1.308168e-38
0.25276288 -0.070591427 0.79700005 1.3266429e-38
0.19622858 -0.070026666 0.80800003 2.0457682e-38
0.19776762 -0.070026666 0.80800003 2.036584e-38
0.19881335 -0.069853343 0.80600005 2.0365844e-38
0.19985144 -0.069679998 0.80400002 2.0365848e-38
0.20088191 -0.069506668 0.80200005 2.0365841e-38
0.20240954 -0.069506668 0.80200005 2.0273999e-38
0.20342858 -0.069333337 0.80000001 2.0274359e-38
0.20444 -0.069159999 0.79800004 2.0183242e-38
0.20570192 -0.069073342 0.79700005 2.0182885e-38
0.20722 -0.069073342 0.79700005 2.0089975e-38
0.20821428 -0.068900004 0.79500002 2.008997e-38
0.20920096 -0.068726666 0.79300004 1.9998129e-38
0.21071143 -0.068726666 0.79300004 1.9997771e-38
0.21168666 -0.068553336 0.79100001 1.9997771e-38
0.21319333 -0.068553336 0.79100001 2.008997e-38
0.2147 -0.068553336 0.79100001 1.9998499e-38
0.21620667 -0.068553336 0.79100001 1.9907024e-38
0.21716286 -0.068380006 0.78900003 1.9723714e-38
0.21866572 -0.068380006 0.78900003 1.9631876e-38
0.21988954 -0.068293341 0.78800005 1.9907381e-38
0.22082858 -0.068120003 0.78600001 2.0275088e-38
0.22289144 -0.068293341 0.78800005 2.0367289e-38
0.22382286 -0.068120003 0.78600001 2.0459484e-38
0.22532 -0.068120003 0.78600001 2.0459845e-38
0.22681715 -0.068120003 0.78600001 2.0551684e-38
0.22889525 -0.068293341 0.78800005 2.0735359e-38
0.22981143 -0.068120003 0.78600001 2.0919391e-38
0.23189716 -0.068293341 0.78800005 2.0920111e-38
0.23339809 -0.068293341 0.78800005 2.101374e-38
0.23519716 -0.068380006 0.78900003 2.1107369e-38
0.2367 -0.068380006 0.78900003 2.12914e-38
0.23820285 -0.068380006 0.78900003 2.1567627e-38
0.24031334 -0.068553336 0.79100001 2.1934923e-38
0.24181999 -0.068553336 0.79100001 1.8703775e-38
0.2439419 -0.068726666 0.79300004 1.5468335e-38
0.24545239 -0.068726666 0.79300004 1.4173997e-38
0.24758571 -0.068900004 0.79500002 1.298804e-38
0.24972668 -0.069073342 0.79700005 1.31728e-38
0.25124475 -0.069073342 0.79700005 1.3356831e-38
0.25308001 -0.069159999 0.79800004 1.3449387e-38
0.19622858 -0.068487622 0.80800003 2.0459136e-38
0.19776762 -0.068487622 0.80800003 2.036693e-38
0.19881335 -0.068318099 0.80600005 2.0366576e-38
0.19985144 -0.068148568 0.80400002 2.036658e-38
0.20088191 -0.067979053 0.80200005 2.0458764e-38
0.20240954 -0.067979053 0.80200005 2.0365485e-38
0.20342858 -0.06780953 0.80000001 2.0366203e-38
0.20444 -0.067639999 0.79800004 2.0275085e-38
0.20596001 -0.067639999 0.79800004 2.0275085e-38
0.20722 -0.067555241 0.79700005 2.0182891e-38
0.20821428 -0.067385718 0.79500002 2.0090691e-38
0.20920096 -0.067216195 0.79300004 2.0090685e-38
0.21071143 -0.067216195 0.79300004 2.0091044e-38
0.21222191 -0.067216195 0.79300004 2.0091045e-38
0.21319333 -0.067046665 0.79100001 2.0091411e-38
0.2147 -0.067046665 0.79100001 1.9999583e-38
0.21620667 -0.067046665 0.79100001 1.9999587e-38
0.21771333 -0.067046665 0.79100001 2.0000308e-38
0.21866572 -0.066877142 0.78900003 1.9909545e-38
0.22016859 -0.066877142 0.78900003 2.0183971e-38
0.22139049 -0.066792384 0.78800005 2.0458766e-38
0.22289144 -0.066792384 0.78800005 2.0551324e-38
0.2243924 -0.066792384 0.78800005 2.0644232e-38
0.22589335 -0.066792384 0.78800005 2.0644229e-38
0.2273943 -0.066792384 0.78800005 2.0736431e-38
0.22889525 -0.066792384 0.78800005 2.0828277e-38
0.2303962 -0.066792384 0.78800005 2.1012304e-38
0.23189716 -0.066792384 0.78800005 2.0830424e-38
0.23339809 -0.066792384 0.78800005 2.0741464e-38
0.23519716 -0.066877142 0.78900003 2.1015542e-38
0.2367 -0.066877142 0.78900003 2.1198494e-38
0.23820285 -0.066877142 0.78900003 2.156763e-38
0.24031334 -0.067046665 0.79100001 2.1934928e-38
0.24243143 -0.067216195 0.79300004 1.8889607e-38
0.2439419 -0.067216195 0.79300004 1.5747076e-38
0.24607143 -0.067385718 0.79500002 1.4358389e-38
0.24820858 -0.067555241 0.79700005 1.2988401e-38
0.24972668 -0.067555241 0.79700005 1.3265354e-38
0.25124475 -0.067555241 0.79700005 1.3634134e-38
0.25308001 -0.067639999 0.79800004 1.3634497e-38
0.19622858 -0.066948578 0.80800003 2.0459124e-38
0.19727811 -0.066782854 0.80600005 2.0459119e-38
0.19881335 -0.066782854 0.80600005 2.0458401e-38
0.19985144 -0.066617139 0.80400002 2.0458403e-38
0.20138286 -0.066617139 0.80400002 2.0549512e-38
0.20240954 -0.06645143 0.80200005 2.0457311e-38
0.20393716 -0.06645143 0.80200005 2.045875e-38
0.20495237 -0.066285715 0.80000001 2.0367638e-38
0.20596001 -0.066119999 0.79800004 2.0367638e-38
0.20748 -0.066119999 0.79800004 2.0275804e-38
0.2087381 -0.066037148 0.79700005 2.0183605e-38
0.20972858 -0.065871432 0.79500002 2.0183242e-38
0.21124287 -0.065871432 0.79500002 2.0275438e-38
0.21222191 -0.065705717 0.79300004 2.0183963e-38
0.21373239 -0.065705717 0.79300004 2.0092131e-38
0.21524286 -0.065705717 0.79300004 2.0092135e-38
0.21620667 -0.065540001 0.79100001 2.0183621e-38
0.21771333 -0.065540001 0.79100001 2.018614e-38
0.21922 -0.065540001 0.79100001 2.027725e-38
0.22016859 -0.065374292 0.78900003 2.0460555e-38
0.22167143 -0.065374292 0.78900003 2.0643869e-38
0.22317429 -0.065374292 0.78900003 2.0735704e-38
0.2243924 -0.065291435 0.78800005 2.0920093e-38
0.22589335 -0.065291435 0.78800005 2.0920453e-38
0.22768287 -0.065374292 0.78900003 2.0920457e-38
0.22918572 -0.065374292 0.78900003 2.1012655e-38
0.23068857 -0.065374292 0.78900003 2.1105571e-38
0.23219143 -0.065374292 0.78900003 2.0832582e-38
0.2336943 -0.065374292 0.78900003 2.0556725e-38
0.23519716 -0.065374292 0.78900003 2.0831881e-38
0.23730001 -0.065540001 0.79100001 2.1199577e-38
0.23880668 -0.065540001 0.79100001 2.1567631e-38
0.24031334 -0.065540001 0.79100001 2.2026757e-38
0.24243143 -0.065705717 0.79300004 1.9075774e-38
0.2439419 -0.065705717 0.79300004 1.611118e-38
0.24607143 -0.065871432 0.79500002 1.4542774e-38
0.24758571 -0.065871432 0.79500002 1.2988396e-38
0.24972668 -0.066037148 0.79700005 1.3450094e-38
0.25124475 -0.066037148 0.79700005 1.3909993e-38
0.25308001 -0.066119999 0.79800004 1.391215e-38
0.19622858 -0.065409526 0.80800003 2.0733902e-38
0.19727811 -0.065247618 0.80600005 2.0550949e-38
0.19881335 -0.065247618 0.80600005 2.0458752e-38
0.19985144 -0.065085717 0.80400002 2.0643137e-38
0.20138286 -0.065085717 0.80400002 2.0827879e-38
0.20240954 -0.064923815 0.80200005 2.0551649e-38
0.20342858 -0.064761907 0.80000001 2.0275792e-38
0.20495237 -0.064761907 0.80000001 2.0367638e-38
0.20596001 -0.064599998 0.79800004 2.0459833e-38
0.20748 -0.064599998 0.79800004 2.0275805e-38
0.2087381 -0.064519048 0.79700005 2.0092131e-38
0.20972858 -0.064357147 0.79500002 2.0183965e-38
0.21124287 -0.064357147 0.79500002 2.0275802e-38
0.21222191 -0.064195246 0.79300004 2.0275805e-38
0.21373239 -0.064195246 0.79300004 2.0184687e-38
0.21524286 -0.064195246 0.79300004 2.018433e-38
0.21620667 -0.064033337 0.79100001 2.0276178e-38
0.21771333 -0.064033337 0.79100001 2.0276908e-38
0.21922 -0.064033337 0.79100001 2.036945e-38
0.22072667 -0.064033337 0.79100001 2.0461275e-38
0.22167143 -0.063871428 0.78900003 2.0644942e-38
0.22374 -0.064033337 0.79100001 2.0736773e-38
0.22467715 -0.063871428 0.78900003 2.0920807e-38
0.22618002 -0.063871428 0.78900003 2.0920812e-38
0.22768287 -0.063871428 0.78900003 2.0921169e-38
0.22918572 -0.063871428 0.78900003 2.1105916e-38
0.23068857 -0.063871428 0.78900003 2.1291035e-38
0.23219143 -0.063871428 0.78900003 2.1014823e-38
0.2336943 -0.063871428 0.78900003 2.0830805e-38
0.23579334 -0.064033337 0.79100001 2.1107399e-38
0.23730001 -0.064033337 0.79100001 2.1386124e-38
0.23880668 -0.064033337 0.79100001 2.1660546e-38
0.24092096 -0.064195246 0.79300004 2.202711e-38
0.24243143 -0.064195246 0.79300004 1.8982129e-38
0.2439419 -0.064195246 0.79300004 1.6016106e-38
0.24607143 -0.064357147 0.79500002 1.445201e-38
0.24820858 -0.064519048 0.79700005 1.298839e-38
0.25004002 -0.064599998 0.79800004 1.3358252e-38
0.25156 -0.064599998 0.79800004 1.381851e-38
0.25308001 -0.064599998 0.79800004 1.3818874e-38
0.19313048 -0.064898096 0.82100004 2.0091066e-38
0.19422001 -0.064740002 0.81900007 2.0183269e-38
0.19622858 -0.063870475 0.80800003 2.1009414e-38
0.19776762 -0.063870475 0.80800003 2.0734625e-38
0.19881335 -0.063712381 0.80600005 2.0550956e-38
0.20034859 -0.063712381 0.80600005 2.082754e-38
0.20138286 -0.063554287 0.80400002 2.1194873e-38
0.20240954 -0.063396193 0.80200005 2.0643853e-38
0.20393716 -0.063396193 0.80200005 2.0092484e-38
0.20495237 -0.063238099 0.80000001 2.0367636e-38
0.2064762 -0.063238099 0.80000001 2.0643506e-38
0.20748 -0.063079998 0.79800004 2.0276169e-38
0.20900001 -0.063079998 0.79800004 2.0000659e-38
0.2102562 -0.063000955 0.79700005 2.0184684e-38
0.21124287 -0.062842853 0.79500002 2.0367996e-38
0.21275714 -0.062842853 0.79500002 2.0367996e-38
0.21373239 -0.062684759 0.79300004 2.0367991e-38
0.21524286 -0.062684759 0.79300004 2.0368345e-38
0.21675335 -0.062684759 0.79300004 2.0368001e-38
0.21771333 -0.062526666 0.79100001 2.0459852e-38
0.21922 -0.062526666 0.79100001 2.0552758e-38
0.22072667 -0.062526666 0.79100001 2.0553112e-38
0.22223333 -0.062526666 0.79100001 2.0644946e-38
0.22374 -0.062526666 0.79100001 2.0737139e-38
0.22467715 -0.062368572 0.78900003 2.0920813e-38
0.22618002 -0.062368572 0.78900003 2.0921173e-38
0.22768287 -0.062368572 0.78900003 2.1013013e-38
0.22918572 -0.062368572 0.78900003 2.1292111e-38
0.23068857 -0.062368572 0.78900003 2.1565832e-38
0.23219143 -0.062368572 0.78900003 2.1289616e-38
0.2336943 -0.062368572 0.78900003 2.1106667e-38
0.23579334 -0.062526666 0.79100001 2.1382897e-38
0.23730001 -0.062526666 0.79100001 2.1660193e-38
0.23941049 -0.062684759 0.79300004 2.1845296e-38
0.24092096 -0.062684759 0.79300004 2.2027121e-38
0.24243143 -0.062684759 0.79300004 1.8980356e-38
0.2466905 -0.063000955 0.79700005 1.4453089e-38
0.24820858 -0.063000955 0.79700005 1.308023e-38
0.25004002 -0.063079998 0.79800004 1.3358616e-38
0.25156 -0.063079998 0.79800004 1.372632e-38
0.25308001 -0.063079998 0.79800004 1.3818877e-38
0.19313048 -0.063334286 0.82100004 1.9999595e-38
0.19422001 -0.063180007 0.81900007 2.0091445e-38
0.19776762 -0.062331434 0.80800003 2.0550602e-38
0.19881335 -0.062177144 0.80600005 2.0459489e-38
0.20034859 -0.062177144 0.80600005 2.0550971e-38
0.20138286 -0.062022857 0.80400002 2.0734632e-38
0.2029143 -0.062022857 0.80400002 2.0459833e-38
0.20393716 -0.061868574 0.80200005 2.0184683e-38
0.20495237 -0.061714288 0.80000001 2.0276158e-38
0.2064762 -0.061714288 0.80000001 2.0459838e-38
0.20748 -0.061560001 0.79800004 2.0276176e-38
0.20900001 -0.061560001 0.79800004 2.0184334e-38
0.2102562 -0.061482862 0.79700005 2.0367999e-38
0.21124287 -0.061328575 0.79500002 2.0551667e-38
0.21275714 -0.061328575 0.79500002 2.0460189e-38
0.21373239 -0.061174288 0.79300004 2.0277225e-38
0.21524286 -0.061174288 0.79300004 2.0276496e-38
0.21675335 -0.061174288 0.79300004 2.0367989e-38
0.21771333 -0.061019998 0.79100001 2.0368366e-38
0.21922 -0.061019998 0.79100001 2.0460919e-38
0.22072667 -0.061019998 0.79100001 2.0553114e-38
0.22223333 -0.061019998 0.79100001 2.0645668e-38
0.22374 -0.061019998 0.79100001 2.0737506e-38
0.22524667 -0.061019998 0.79100001 2.0921177e-38
0.22618002 -0.060865719 0.78900003 2.0921177e-38
0.22768287 -0.060865719 0.78900003 2.0921186e-38
0.22918572 -0.060865719 0.78900003 2.1105583e-38
0.23068857 -0.060865719 0.78900003 2.119814e-38
0.23219143 -0.060865719 0.78900003 2.1106308e-38
0.2336943 -0.060865719 0.78900003 2.1108818e-38
0.23579334 -0.061019998 0.79100001 2.1292129e-38
0.23730001 -0.061019998 0.79100001 2.1475443e-38
0.23941049 -0.061174288 0.79300004 2.1751311e-38
0.24092096 -0.061174288 0.79300004 2.2027134e-38
0.24517241 -0.061482862 0.79700005 1.5748158e-38
0.2466905 -0.061482862 0.79700005 1.4092926e-38
0.24852002 -0.061560001 0.79800004 1.2437744e-38
0.25004002 -0.061560001 0.79800004 1.2806533e-38
0.25156 -0.061560001 0.79800004 1.3175311e-38
0.25308001 -0.061560001 0.79800004 1.345082e-38
0.19156668 -0.061770476 0.82100004 1.990882e-38
0.19313048 -0.061770476 0.82100004 1.9908104e-38
0.19482383 -0.061319049 0.81500006 2.0182535e-38
0.19613524 -0.06124381 0.81400001 2.027401e-38
0.19776762 -0.060792383 0.80800003 2.036693e-38
0.19881335 -0.060641907 0.80600005 2.0367293e-38
0.20034859 -0.060641907 0.80600005 2.0275819e-38
0.20138286 -0.060491432 0.80400002 2.0275812e-38
0.2029143 -0.060491432 0.80400002 2.0275805e-38
0.20393716 -0.060340952 0.80200005 2.0275445e-38
0.20495237 -0.060190476 0.80000001 2.0275083e-38
0.2064762 -0.060190476 0.80000001 2.0367278e-38
0.20748 -0.060040005 0.79800004 2.0367636e-38
0.20900001 -0.060040005 0.79800004 2.0367278e-38
0.2102562 -0.059964765 0.79700005 2.055095e-38
0.21124287 -0.059814285 0.79500002 2.0826818e-38
0.21222191 -0.059663814 0.79300004 2.0552392e-38
0.21373239 -0.059663814 0.79300004 2.027652e-38
0.21524286 -0.059663814 0.79300004 2.0276513e-38
0.21675335 -0.059663814 0.79300004 2.0367999e-38
0.21771333 -0.059513334 0.79100001 2.0369085e-38
0.21922 -0.059513334 0.79100001 2.0460921e-38
0.22072667 -0.059513334 0.79100001 2.0553116e-38
0.22223333 -0.059513334 0.79100001 2.0737506e-38
0.22374 -0.059513334 0.79100001 2.0829701e-38
0.22524667 -0.059513334 0.79100001 2.0921539e-38
0.22675334 -0.059513334 0.79100001 2.0921542e-38
0.22826 -0.059513334 0.79100001 2.092119e-38
0.22976667 -0.059513334 0.79100001 2.0921197e-38
0.23127334 -0.059513334 0.79100001 2.0922637e-38
0.23219143 -0.059362859 0.78900003 2.1014839e-38
0.2336943 -0.059362859 0.78900003 2.110882e-38
0.23579334 -0.059513334 0.79100001 2.1200291e-38
0.23730001 -0.059513334 0.79100001 2.1383963e-38
0.23941049 -0.059663814 0.79300004 2.1751667e-38
0.24092096 -0.059663814 0.79300004 2.2118964e-38
0.24304286 -0.059814285 0.79500002 1.8799568e-38
0.24517241 -0.059964765 0.79700005 1.5560886e-38
0.24700001 -0.060040005 0.79800004 1.3713728e-38
0.24852002 -0.060040005 0.79800004 1.1883845e-38
0.25004002 -0.060040005 0.79800004 1.2252633e-38
0.25156 -0.060040005 0.79800004 1.2712168e-38
0.19156668 -0.06020667 0.82100004 1.9905592e-38
0.19313048 -0.06020667 0.82100004 1.9997775e-38
0.19482383 -0.059766669 0.81500006 2.0181081e-38
0.19613524 -0.059693333 0.81400001 2.0182165e-38
0.19792858 -0.059766669 0.81500006 2.0183608e-38
0.19930667 -0.059253335 0.80800003 2.0274737e-38
0.20034859 -0.05910667 0.80600005 2.027474e-38
0.20138286 -0.058960002 0.80400002 2.0275095e-38
0.2029143 -0.058960002 0.80400002 2.0275449e-38
0.20393716 -0.058813337 0.80200005 2.0275446e-38
0.20495237 -0.058666669 0.80000001 2.0275086e-38
0.2064762 -0.058666669 0.80000001 2.0274718e-38
0.20748 -0.05852 0.79800004 2.0274708e-38
0.20900001 -0.05852 0.79800004 2.0275074e-38
0.2102562 -0.058446668 0.79700005 2.0459112e-38
0.21124287 -0.0583 0.79500002 2.0550956e-38
0.21222191 -0.058153339 0.79300004 2.0368012e-38
0.21373239 -0.058153339 0.79300004 2.0276532e-38
0.21524286 -0.058153339 0.79300004 2.0276171e-38
0.21675335 -0.058153339 0.79300004 2.0368008e-38
0.21826382 -0.058153339 0.79300004 2.0368728e-38
0.21977429 -0.058153339 0.79300004 2.0461282e-38
0.22072667 -0.058006667 0.79100001 2.0553121e-38
0.22223333 -0.058006667 0.79100001 2.0645672e-38
0.22374 -0.058006667 0.79100001 2.0737149e-38
0.22524667 -0.058006667 0.79100001 2.082899e-38
0.22675334 -0.058006667 0.79100001 2.0829354e-38
0.22826 -0.058006667 0.79100001 2.0921912e-38
0.22976667 -0.058006667 0.79100001 2.0921558e-38
0.23127334 -0.058006667 0.79100001 2.1014837e-38
0.23219143 -0.057860002 0.78900003 2.1107399e-38
0.2336943 -0.057860002 0.78900003 2.1108822e-38
0.23579334 -0.058006667 0.79100001 2.119957e-38
0.23730001 -0.058006667 0.79100001 2.129069e-38
0.23941049 -0.058153339 0.79300004 2.1567275e-38
0.24152859 -0.0583 0.79500002 2.1843452e-38
0.24304286 -0.0583 0.79500002 1.9256943e-38
0.24517241 -0.058446668 0.79700005 1.6659312e-38
0.24700001 -0.05852 0.79800004 1.5372131e-38
0.24852002 -0.05852 0.79800004 1.4085369e-38
0.25004002 -0.05852 0.79800004 1.4361963e-38
0.25156 -0.05852 0.79800004 1.463854e-38
0.25308001 -0.05852 0.79800004 1.4735393e-38
0.19156668 -0.058642861 0.82100004 1.999743e-38
0.19313048 -0.058642861 0.82100004 2.0089256e-38
0.19482383 -0.058214288 0.81500006 2.0272921e-38
0.19637619 -0.058214288 0.81500006 2.0182165e-38
0.19768572 -0.058142856 0.81400001 2.0090342e-38
0.19930667 -0.057714287 0.80800003 2.0274383e-38
0.20034859 -0.057571433 0.80600005 2.0274383e-38
0.20138286 -0.057428572 0.80400002 2.0275452e-38
0.20240954 -0.057285715 0.80200005 2.0276164e-38
0.20393716 -0.057285715 0.80200005 2.0275448e-38
0.20495237 -0.057142857 0.80000001 2.0275449e-38
0.2064762 -0.057142857 0.80000001 2.0274729e-38
0.20748 -0.057 0.79800004 2.0275086e-38
0.20900001 -0.057 0.79800004 2.0275085e-38
0.2102562 -0.056928575 0.79700005 2.0275802e-38
0.21177429 -0.056928575 0.79700005 2.0367642e-38
0.21275714 -0.056785714 0.79500002 2.0275812e-38
0.21373239 -0.05664286 0.79300004 2.0276527e-38
0.21524286 -0.05664286 0.79300004 2.0276167e-38
0.21675335 -0.05664286 0.79300004 2.0368006e-38
0.21826382 -0.05664286 0.79300004 2.0368728e-38
0.21977429 -0.05664286 0.79300004 2.0460926e-38
0.22128478 -0.05664286 0.79300004 2.0461649e-38
0.22279525 -0.05664286 0.79300004 2.0553482e-38
0.22430572 -0.05664286 0.79300004 2.0645316e-38
0.22524667 -0.056499999 0.79100001 2.0828989e-38
0.22675334 -0.056499999 0.79100001 2.0828991e-38
0.22826 -0.056499999 0.79100001 2.0921191e-38
0.22976667 -0.056499999 0.79100001 2.101375e-38
0.23127334 -0.056499999 0.79100001 2.11985e-38
0.23278001 -0.056499999 0.79100001 2.1199939e-38
0.23428667 -0.056499999 0.79100001 2.1199935e-38
0.23579334 -0.056499999 0.79100001 2.1199213e-38
0.2379 -0.05664286 0.79300004 2.1198856e-38
0.23941049 -0.05664286 0.79300004 2.1383247e-38
0.24152859 -0.056785714 0.79500002 2.156689e-38
0.2436543 -0.056928575 0.79700005 1.9714369e-38
0.24517241 -0.056928575 0.79700005 1.7867206e-38
0.24700001 -0.057 0.79800004 1.7030232e-38
0.24852002 -0.057 0.79800004 1.6297707e-38
0.25004002 -0.057 0.79800004 1.6392059e-38
0.19203334 -0.057218097 0.82300001 1.9813763e-38
0.19482383 -0.056661908 0.81500006 2.0364759e-38
0.19637619 -0.056661908 0.81500006 2.0182523e-38
0.19768572 -0.056592382 0.81400001 2.0090345e-38
0.19930667 -0.056175239 0.80800003 2.0365146e-38
0.20034859 -0.056036193 0.80600005 2.0273667e-38
0.20138286 -0.055897143 0.80400002 2.0183975e-38
0.20240954 -0.0557581 0.80200005 2.0091415e-38
0.20393716 -0.0557581 0.80200005 2.0091061e-38
0.20495237 -0.05561905 0.80000001 1.9998872e-38
0.2064762 -0.05561905 0.80000001 1.9998876e-38
0.20748 -0.05548 0.79800004 1.9907764e-38
0.20900001 -0.05548 0.79800004 1.9907754e-38
0.21052 -0.05548 0.79800004 2.0091775e-38
0.21204001 -0.05548 0.79800004 2.0183971e-38
0.21275714 -0.055271428 0.79500002 2.0183972e-38
0.21427143 -0.055271428 0.79500002 2.0184687e-38
0.21524286 -0.055132385 0.79300004 2.0276521e-38
0.21675335 -0.055132385 0.79300004 2.0368362e-38
0.21826382 -0.055132385 0.79300004 2.0276892e-38
0.21977429 -0.055132385 0.79300004 2.027726e-38
0.22128478 -0.055132385 0.79300004 2.0369104e-38
0.22279525 -0.055132385 0.79300004 2.0460217e-38
0.22430572 -0.055132385 0.79300004 2.0553125e-38
0.22581619 -0.055132385 0.79300004 2.0737153e-38
0.22675334 -0.054993331 0.79100001 2.0736794e-38
0.22826 -0.054993331 0.79100001 2.07368e-38
0.22976667 -0.054993331 0.79100001 2.0829719e-38
0.23127334 -0.054993331 0.79100001 2.1015181e-38
0.23278001 -0.054993331 0.79100001 2.1015538e-38
0.23428667 -0.054993331 0.79100001 2.1016258e-38
0.23579334 -0.054993331 0.79100001 2.1015186e-38
0.23730001 -0.054993331 0.79100001 2.1106664e-38
0.23941049 -0.055132385 0.79300004 2.1290337e-38
0.24152859 -0.055271428 0.79500002 2.1566195e-38
0.24304286 -0.055271428 0.79500002 2.0827558e-38
0.24517241 -0.055410478 0.79700005 2.018107e-38
0.2466905 -0.055410478 0.79700005 1.9814754e-38
0.24852002 -0.05548 0.79800004 1.9540682e-38
0.25004002 -0.05548 0.79800004 1.9448131e-38
0.25156 -0.05548 0.79800004 1.9447772e-38
0.19203334 -0.055650476 0.82300001 1.9538254e-38
0.19374573 -0.055244766 0.81700003 1.9905219e-38
0.19482383 -0.055109527 0.81500006 2.045695e-38
0.19637619 -0.055109527 0.81500006 2.0274712e-38
0.19792858 -0.055109527 0.81500006 2.0181814e-38
0.19874667 -0.05490667 0.81200004 2.0365499e-38
0.1998 -0.054771435 0.81000006 2.0549169e-38
0.20084572 -0.054636195 0.80800003 2.0271869e-38
0.20240954 -0.054230478 0.80200005 1.9998499e-38
0.20342858 -0.054095238 0.80000001 1.9998864e-38
0.20495237 -0.054095238 0.80000001 1.9815557e-38
0.2064762 -0.054095238 0.80000001 1.9723724e-38
0.20748 -0.053959999 0.79800004 1.9632252e-38
0.20900001 -0.053959999 0.79800004 1.9632245e-38
0.21052 -0.053959999 0.79800004 1.9815909e-38
0.21204001 -0.053959999 0.79800004 2.0091777e-38
0.21275714 -0.053757142 0.79500002 2.0092497e-38
0.21427143 -0.053757142 0.79500002 2.0184334e-38
0.21578573 -0.053757142 0.79500002 2.0276528e-38
0.21675335 -0.053621907 0.79300004 2.0368365e-38
0.21826382 -0.053621907 0.79300004 2.0185414e-38
0.21977429 -0.053621907 0.79300004 2.0093584e-38
0.22128478 -0.053621907 0.79300004 2.0185426e-38
0.22279525 -0.053621907 0.79300004 2.0369094e-38
0.22430572 -0.053621907 0.79300004 2.0460926e-38
0.22581619 -0.053621907 0.79300004 2.0644592e-38
0.22732668 -0.053621907 0.79300004 2.0644945e-38
0.22826 -0.053486664 0.79100001 2.0644596e-38
0.23034762 -0.053621907 0.79300004 2.0737519e-38
0.23127334 -0.053486664 0.79100001 2.0830066e-38
0.23278001 -0.053486664 0.79100001 2.0831137e-38
0.23428667 -0.053486664 0.79100001 2.0922984e-38
0.23638953 -0.053621907 0.79300004 2.0922995e-38
0.2379 -0.053621907 0.79300004 2.101483e-38
0.24001428 -0.053757142 0.79500002 2.1290337e-38
0.24152859 -0.053757142 0.79500002 2.1565122e-38
0.2436543 -0.053892381 0.79700005 2.2030033e-38
0.24517241 -0.053892381 0.79700005 2.2489541e-38
0.24700001 -0.053959999 0.79800004 2.26739e-38
0.24852002 -0.053959999 0.79800004 2.2855781e-38
0.25004002 -0.053959999 0.79800004 2.2578482e-38
0.19374573 -0.053688571 0.81700003 1.9905574e-38
0.19482383 -0.053557146 0.81500006 2.0181796e-38
0.19637619 -0.053557146 0.81500006 2.0089961e-38
0.19792858 -0.053557146 0.81500006 1.9998136e-38
0.19874667 -0.053360004 0.81200004 2.0090342e-38
0.1998 -0.053228576 0.81000006 2.0274373e-38
0.20084572 -0.053097144 0.80800003 2.018254e-38
0.20240954 -0.052702863 0.80200005 1.9999571e-38
0.20342858 -0.052571427 0.80000001 2.0000653e-38
0.20495237 -0.052571427 0.80000001 1.9906672e-38
0.2064762 -0.052571427 0.80000001 1.9721928e-38
0.20748 -0.052440003 0.79800004 1.9723007e-38
0.20900001 -0.052440003 0.79800004 1.9632959e-38
0.21052 -0.052440003 0.79800004 1.9907385e-38
0.21204001 -0.052440003 0.79800004 2.0183255e-38
0.21329239 -0.052374288 0.79700005 1.9999588e-38
0.21427143 -0.052242856 0.79500002 1.9816279e-38
0.21578573 -0.052242856 0.79500002 2.0000671e-38
0.21730001 -0.052242856 0.79500002 2.0276892e-38
0.21826382 -0.052111432 0.79300004 2.0184695e-38
0.22032857 -0.052242856 0.79500002 2.018434e-38
0.22128478 -0.052111432 0.79300004 2.0184701e-38
0.22279525 -0.052111432 0.79300004 2.0277253e-38
0.22430572 -0.052111432 0.79300004 2.0369087e-38
0.22581619 -0.052111432 0.79300004 2.0460912e-38
0.22732668 -0.052111432 0.79300004 2.0552738e-38
0.22883715 -0.052111432 0.79300004 2.0644588e-38
0.23034762 -0.052111432 0.79300004 2.0737155e-38
0.2318581 -0.052111432 0.79300004 2.0737503e-38
0.23278001 -0.05198 0.79100001 2.0737495e-38
0.23487906 -0.052111432 0.79300004 2.0737873e-38
0.23638953 -0.052111432 0.79300004 2.0830446e-38
0.2379 -0.052111432 0.79300004 2.0922639e-38
0.24001428 -0.052242856 0.79500002 2.1106308e-38
0.2421362 -0.052374288 0.79700005 2.1380736e-38
0.2436543 -0.052374288 0.79700005 2.1846009e-38
0.24548 -0.052440003 0.79800004 2.2397732e-38
0.24700001 -0.052440003 0.79800004 2.2397368e-38
0.24852002 -0.052440003 0.79800004 2.2485619e-38
0.25004002 -0.052440003 0.79800004 2.2394147e-38
0.19374573 -0.052132383 0.81700003 1.98141e-38
0.19482383 -0.052004766 0.81500006 1.9997771e-38
0.19637619 -0.052004766 0.81500006 1.9907011e-38
0.19768572 -0.051940955 0.81400001 1.9813749e-38
0.19874667 -0.051813334 0.81200004 1.9904876e-38
0.1998 -0.051685717 0.81000006 1.9997789e-38
0.20084572 -0.051558096 0.80800003 1.9998866e-38
0.20188382 -0.051430479 0.80600005 2.0090695e-38
0.20240954 -0.05117524 0.80200005 2.0092121e-38
0.20342858 -0.051047619 0.80000001 2.0091049e-38
0.20495237 -0.051047619 0.80000001 1.9906308e-38
0.2064762 -0.051047619 0.80000001 1.9814116e-38
0.20748 -0.050920002 0.79800004 1.9722285e-38
0.20900001 -0.050920002 0.79800004 1.9723e-38
0.21052 -0.050920002 0.79800004 1.9999221e-38
0.21204001 -0.050920002 0.79800004 2.027437e-38
0.21329239 -0.050856192 0.79700005 1.9907031e-38
0.21427143 -0.050728571 0.79500002 1.9539692e-38
0.21578573 -0.050728571 0.79500002 1.9815201e-38
0.21730001 -0.050728571 0.79500002 2.0182899e-38
0.21881428 -0.050728571 0.79500002 2.0183615e-38
0.21977429 -0.050600957 0.79300004 2.0276171e-38
0.22128478 -0.050600957 0.79300004 2.0276174e-38
0.22279525 -0.050600957 0.79300004 2.0275816e-38
0.22430572 -0.050600957 0.79300004 2.0275819e-38
0.22581619 -0.050600957 0.79300004 2.0368368e-38
0.22732668 -0.050600957 0.79300004 2.0552753e-38
0.22883715 -0.050600957 0.79300004 2.0736789e-38
0.23034762 -0.050600957 0.79300004 2.0737153e-38
0.2318581 -0.050600957 0.79300004 2.0737148e-38
0.23336859 -0.050600957 0.79300004 2.0645308e-38
0.23487906 -0.050600957 0.79300004 2.0645678e-38
0.23638953 -0.050600957 0.79300004 2.0738243e-38
0.2379 -0.050600957 0.79300004 2.0830798e-38
0.2421362 -0.050856192 0.79700005 2.1201008e-38
0.2436543 -0.050856192 0.79700005 2.1753811e-38
0.24548 -0.050920002 0.79800004 2.2304463e-38
0.24700001 -0.050920002 0.79800004 2.2212627e-38
0.24852002 -0.050920002 0.79800004 2.2120792e-38
0.25066668 -0.051047619 0.80000001 2.2212631e-38
0.19374573 -0.050576191 0.81700003 1.972191e-38
0.19482383 -0.050452381 0.81500006 1.9813745e-38
0.19637619 -0.050452381 0.81500006 1.9813386e-38
0.19792858 -0.050452381 0.81500006 1.9813033e-38
0.19825715 -0.050142862 0.81000006 1.981304e-38
0.1998 -0.050142862 0.81000006 1.981304e-38
0.20084572 -0.050019048 0.80800003 1.9814118e-38
0.20188382 -0.049895242 0.80600005 1.990738e-38
0.2029143 -0.049771432 0.80400002 1.9906655e-38
0.20393716 -0.049647622 0.80200005 1.9906299e-38
0.20495237 -0.049523808 0.80000001 1.9814467e-38
0.2064762 -0.049523808 0.80000001 1.9722994e-38
0.20748 -0.049400002 0.79800004 1.9722998e-38
0.20900001 -0.049400002 0.79800004 1.9722998e-38
0.21052 -0.049400002 0.79800004 1.9814834e-38
0.21204001 -0.049400002 0.79800004 1.9998145e-38
0.21329239 -0.049338099 0.79700005 1.9815191e-38
0.21481049 -0.049338099 0.79700005 1.9724075e-38
0.21578573 -0.049214285 0.79500002 1.9907748e-38
0.21730001 -0.049214285 0.79500002 2.0091777e-38
0.21881428 -0.049214285 0.79500002 2.0183612e-38
0.22032857 -0.049214285 0.79500002 2.018469e-38
0.22184286 -0.049214285 0.79500002 2.0183975e-38
0.22279525 -0.049090479 0.79300004 2.0183263e-38
0.22430572 -0.049090479 0.79300004 2.0275465e-38
0.22581619 -0.049090479 0.79300004 2.0276183e-38
0.22732668 -0.049090479 0.79300004 2.036838e-38
0.22883715 -0.049090479 0.79300004 2.0461648e-38
0.23034762 -0.049090479 0.79300004 2.0553482e-38
0.2318581 -0.049090479 0.79300004 2.0646034e-38
0.23336859 -0.049090479 0.79300004 2.0553838e-38
0.23547144 -0.049214285 0.79500002 2.0553842e-38
0.23638953 -0.049090479 0.79300004 2.0738595e-38
0.2385 -0.049214285 0.79500002 2.0922629e-38
0.24061811 -0.049338099 0.79700005 2.1107382e-38
0.2421362 -0.049338099 0.79700005 2.1294993e-38
0.2436543 -0.049338099 0.79700005 2.166233e-38
0.24548 -0.049400002 0.79800004 2.2121511e-38
0.24700001 -0.049400002 0.79800004 2.2028963e-38
0.24914286 -0.049523808 0.80000001 2.2028604e-38
0.25066668 -0.049523808 0.80000001 2.2212275e-38
0.25561714 -0.049895242 0.80600005 2.2396312e-38
0.19374573 -0.04902 0.81700003 1.9721194e-38
0.19530191 -0.04902 0.81700003 1.9721192e-38
0.19637619 -0.048900004 0.81500006 1.9721551e-38
0.19792858 -0.048900004 0.81500006 1.9812672e-38
0.1998 -0.048600003 0.81000006 1.9720846e-38
0.20084572 -0.048480004 0.80800003 1.9720853e-38
0.20188382 -0.048360001 0.80600005 1.9721559e-38
0.2029143 -0.048239999 0.80400002 1.9722626e-38
0.20393716 -0.048119999 0.80200005 1.9814461e-38
0.20546477 -0.048119999 0.80200005 1.9722984e-38
0.2064762 -0.048 0.80000001 1.9722989e-38
0.208 -0.048 0.80000001 1.9723352e-38
0.20952381 -0.048 0.80000001 1.9723353e-38
0.21052 -0.047880001 0.79800004 1.9723354e-38
0.21204001 -0.047880001 0.79800004 1.9722997e-38
0.21329239 -0.047820002 0.79700005 1.9815551e-38
0.21481049 -0.047820002 0.79700005 1.9908103e-38
0.21578573 -0.047700003 0.79500002 2.0000296e-38
0.21730001 -0.047700003 0.79500002 2.0092133e-38
0.21881428 -0.047700003 0.79500002 2.0092134e-38
0.22032857 -0.047700003 0.79500002 2.0183248e-38
0.22184286 -0.047700003 0.79500002 2.0182528e-38
0.22279525 -0.047580004 0.79300004 2.0182893e-38
0.22430572 -0.047580004 0.79300004 2.0183261e-38
0.22581619 -0.047580004 0.79300004 2.0276176e-38
0.22732668 -0.047580004 0.79300004 2.0276181e-38
0.22883715 -0.047580004 0.79300004 2.0276898e-38
0.23092857 -0.047700003 0.79500002 2.0369811e-38
0.23244286 -0.047700003 0.79500002 2.0552762e-38
0.23395714 -0.047700003 0.79500002 2.0551683e-38
0.23547144 -0.047700003 0.79500002 2.0553125e-38
0.23698571 -0.047700003 0.79500002 2.0738955e-38
0.2385 -0.047700003 0.79500002 2.1014462e-38
0.24061811 -0.047820002 0.79700005 2.119921e-38
0.2421362 -0.047820002 0.79700005 2.1473642e-38
0.24396002 -0.047880001 0.79800004 2.1656597e-38
0.24548 -0.047880001 0.79800004 2.1937127e-38
0.24761905 -0.048 0.80000001 2.193713e-38
0.24914286 -0.048 0.80000001 2.1936773e-38
0.25066668 -0.048 0.80000001 2.2120085e-38
0.25561714 -0.048360001 0.80600005 2.2672541e-38
0.25715238 -0.048360001 0.80600005 2.2948043e-38
0.19530191 -0.047463812 0.81700003 1.9720835e-38
0.19637619 -0.047347624 0.81500006 1.9720475e-38
0.19825715 -0.047057144 0.81000006 1.9721194e-38
0.1998 -0.047057144 0.81000006 1.9630087e-38
0.20084572 -0.046940953 0.80800003 1.9629382e-38
0.20188382 -0.046824764 0.80600005 1.9629009e-38
0.20341906 -0.046824764 0.80600005 1.9629714e-38
0.2044457 -0.046708573 0.80400002 1.972334e-38
0.20546477 -0.046592385 0.80200005 1.972298e-38
0.2064762 -0.046476189 0.80000001 1.9722984e-38
0.208 -0.046476189 0.80000001 1.9630794e-38
0.20952381 -0.046476189 0.80000001 1.9630438e-38
0.21052 -0.046360001 0.79800004 1.96308e-38
0.21204001 -0.046360001 0.79800004 1.9539326e-38
0.21329239 -0.046301909 0.79700005 1.9631523e-38
0.21481049 -0.046301909 0.79700005 1.9816982e-38
0.21578573 -0.046185717 0.79500002 1.9908096e-38
0.21730001 -0.046185717 0.79500002 1.9999217e-38
0.21881428 -0.046185717 0.79500002 1.9999938e-38
0.22032857 -0.046185717 0.79500002 2.0089972e-38
0.22184286 -0.046185717 0.79500002 2.0090681e-38
0.22279525 -0.046069525 0.79300004 2.0182525e-38
0.22430572 -0.046069525 0.79300004 2.0275445e-38
0.22581619 -0.046069525 0.79300004 2.0368003e-38
0.22732668 -0.046069525 0.79300004 2.0276175e-38
0.2294143 -0.046185717 0.79500002 2.0276178e-38
0.23092857 -0.046185717 0.79500002 2.0368735e-38
0.23244286 -0.046185717 0.79500002 2.0460566e-38
0.23395714 -0.046185717 0.79500002 2.0552399e-38
0.23606382 -0.046301909 0.79700005 2.0644243e-38
0.23758191 -0.046301909 0.79700005 2.0829716e-38
0.23910002 -0.046301909 0.79700005 2.101446e-38
0.24061811 -0.046301909 0.79700005 2.1290681e-38
0.24244002 -0.046360001 0.79800004 2.1659107e-38
0.24396002 -0.046360001 0.79800004 2.1843862e-38
0.24548 -0.046360001 0.79800004 2.2028609e-38
0.24761905 -0.046476189 0.80000001 2.2028611e-38
